# .PCD v0.7 - Point Cloud Data file format
VERSION 0.7
FIELDS x y z intensity
SIZE 4 4 4 4
TYPE F F F F
COUNT 1 1 1 1
WIDTH 1423
HEIGHT 1
VIEWPOINT 0 0 0 1 0 0 0
POINTS 1423
DATA ascii
-244 -460.79999 1805 inf
-253.2 -463.5 1813.2 inf
-258.20001 -458.70001 1792.1 inf
-265.79999 -458.29999 1788.5 inf
-274.79999 -460.5 1794.6 inf
-284.60001 -463.89999 1805.3 inf
-292.29999 -463.79999 1802.5 inf
-302.29999 -467.20001 1813.1 inf
-308 -464 1797.9 inf
-318.29999 -467.60001 1809.3 38.517769
-322.10001 -461.79999 1783.9 1.5314895e-18
-329.79999 -461.70001 1780.6 1.6224408e+35
-341 -466.39999 1795.5 1.7398881e+11
-352.20001 -471 1810.1 0.00067987724
-359.70001 -470.39999 1804.7 inf
-367.10001 -469.70001 1798.9 3.9493586e-28
-371.10001 -464.89999 1776.8 1.1774825e-08
-381.89999 -468.5 1787.4 inf
-394.89999 -474.70001 1807.5 inf
-396.29999 -466.89999 1774.1 inf
-408 -471.29999 1787.1 inf
-421 -477.10001 1805.2 inf
-427.5 -475.39999 1794.8 inf
-434.5 -474.29999 1786.6 inf
-440.39999 -472.10001 1774 inf
-441.10001 -464.5 1741.1 inf
-463.60001 -479.70001 1794.1 inf
-465.39999 -473.29999 1765.7 inf
-482.60001 -482.60001 1795.9 2.7301332e+35
-493.29999 -485.10001 1800.8 inf
-495.60001 -479.5 1774.9 inf
-510.70001 -486.20001 1795 9.4337853e-09
-506.79999 -474.89999 1748 31.262699
-526.90002 -486 1784.2 8.0313018e-09
-519.59998 -472 1727.3 inf
-546.5 -489 1784.4 inf
-545.70001 -481.10001 1749.8 inf
-552.70001 -480.10001 1740.7 1.7259081e-13
-567.59998 -486 1756.5 3.0219715e-23
-583.79999 -492.70001 1775.2 3.6580618e+25
-580.5 -483.10001 1734.5 3.3800929e+35
-595.20001 -488.5 1747.7 inf
-601.09998 -486.60001 1734.9 inf
-615.79999 -491.79999 1747.3 inf
-635.79999 -501 1773.5 2.8331646e+35
-633.59998 -492.79999 1737.7 inf
-644.29999 -494.60001 1737.3 inf
-643.79999 -488 1707 inf
-666.40002 -498.79999 1738 inf
-681.5 -503.70001 1748 inf
-675.29999 -493 1703.3 inf
-710.79999 -512.59998 1763.8 inf
-695.79999 -495.79999 1698 inf
-740.20001 -521.20001 1777.3 5.8673162e+25
-726.40002 -505.5 1715.4 9.1507134e+15
-744.90002 -512.40002 1730.6 2.0888928e-18
-762.29999 -518.40002 1742.3 inf
750.70001 -519.09998 1709.9 inf
744.29999 -520.59998 1723.3 inf
737.5 -521.90002 1736.1 3578008.5
709.70001 -508.10001 1698 46.603951
717.20001 -519.70001 1744.8 inf
699.90002 -513.20001 1730.9 inf
686.29999 -509.5 1725.8 inf
679.09998 -510.39999 1736.2 inf
670.5 -510.29999 1743.2 inf
653.70001 -503.79999 1728.1 inf
648.59998 -506.39999 1743.8 inf
628.20001 -496.79999 1717.4 inf
618.90002 -495.89999 1721 inf
609.29999 -494.79999 1723.4 inf
606.09998 -498.89999 1744.4 inf
587.40002 -490.20001 1719.8 inf
591.40002 -500.39999 1762 inf
573.40002 -492.10001 1738.3 inf
559.09998 -486.70001 1725.2 inf
559.40002 -494 1756.9 1.482519e+11
544.20001 -487.70001 1739.9 1.1544338e-13
542.20001 -493.29999 1765.4 inf
526.5 -486.29999 1745.4 inf
524.20001 -491.70001 1770.2 3.2485533e+35
505.29999 -481.5 1738.1 0.00067976688
500.89999 -484.89999 1755.5 2.4206014e+35
499.20001 -491.10001 1783.1 inf
481.29999 -481.29999 1752.1 inf
473.79999 -481.70001 1758.3 6.3547013e+25
462.29999 -478.10001 1749.6 inf
459 -483 1771.9 inf
444.29999 -475.79999 1749.6 inf
435.79999 -475.10001 1751.3 inf
430.79999 -478.20001 1767 inf
422.29999 -477.60001 1768.5 inf
408.70001 -471 1747.9 inf
400.79999 -470.79999 1751 inf
393.70001 -471.70001 1757.9 inf
386.79999 -472.79999 1765.9 5.87302e+25
379.70001 -473.70001 1772.7 inf
365.10001 -465 1743.3 inf
362.29999 -471.39999 1770.8 1.3678623e-13
353.89999 -470.60001 1771.1 5.2135562e+20
345.10001 -469.20001 1769 0.00049594149
335.39999 -466.39999 1761.6 2.3143374e+35
324.79999 -462.29999 1749 inf
318 -463.60001 1756.6 inf
312.5 -466.79999 1771.8 1.570429e+11
305.29999 -467.60001 1777.6 4.1748275e+25
297.10001 -466.89999 1777.9 inf
289.10001 -466.5 1778.7 inf
280.39999 -464.79999 1774.8 inf
270.10001 -460.39999 1760.3 inf
267 -468.10001 1792.5 inf
255 -460.60001 1765.7 inf
248 -461.70001 1772.4 inf
242.7 -466.10001 1791.4 inf
227.89999 -452.10001 1739.4 inf
228.2 -467.89999 1802.7 inf
215.7 -457.89999 1765.5 inf
210 -462 1783.5 5.8663939e+25
205.5 -469.10001 1813 3.8557462e+30
196.3 -465.70001 1801.3 1.4800013e+16
184.5 -455.60001 1763.6 34.517647
178.5 -459.60001 1780.6 5.6425764e-33
172.5 -463.89999 1799.1 5.8215836e-33
165.3 -465.20001 1805.4 2.6250608e+35
157.8 -465.70001 1808.8 inf
147.60001 -457.79999 1779.5 1985100.2
140.3 -458.79999 1784.5 8.8084593e+15
133.89999 -463 1802.2 inf
125.8 -461.20001 1796 inf
116.3 -453.79999 1768.3 inf
110.8 -462.5 1803.3 inf
102.8 -460.79999 1797.6 inf
94.800003 -458.89999 1790.9 inf
86.5 -455.10001 1776.9 inf
78.5 -452.29999 1766.3 inf
72.199997 -460.10001 1797.7 inf
64.400002 -458.29999 1791.2 inf
56 -452 1766.9 inf
48.200001 -448.70001 1754.4 inf
41.599998 -457.20001 1788.3 inf
34 -457.29999 1789.1 4.00552e+30
26.5 -458.10001 1792.5 5.865442e+25
18.9 -458.29999 1793.5 8.0349327e-09
11.2 -450.5 1762.8 6.1138907e-09
3.7 -448.20001 1753.7 2392172.5
-3.7 -450.5 1762.8 1.3095804e+16
-11.3 -457.60001 1790.6 inf
-18.9 -457 1788.2 1.2285466e-13
-26 -450.20001 1761.1 6.1157016e+25
-33.799999 -455.10001 1780.2 4.4165942e+25
-41.599998 -457.79999 1790.7 inf
-49.5 -460.39999 1800.6 2.8323517e+35
-55.200001 -445.39999 1741.2 inf
-62.900002 -447.39999 1748.3 inf
-71.5 -455.60001 1780.2 inf
-78.699997 -453.39999 1770.7 inf
-85.699997 -450.79999 1759.7 inf
-94 -454.89999 1775.3 inf
-101.1 -453 1766.9 inf
-109.1 -455.39999 1775.3 inf
-117.4 -458.20001 1785.4 inf
-124.7 -457.39999 1781.3 inf
-133.39999 -461.10001 1794.6 inf
-139.5 -456.20001 1774.5 38.517769
-147.39999 -457.29999 1777.4 1.5314895e-18
-155.5 -459 1782.9 1.6224408e+35
-164.10001 -461.70001 1791.9 1.7398881e+11
-170.5 -458.5 1778.2 0.00067987724
-178.5 -459.60001 1780.6 inf
-187.5 -463 1792.4 3.9493586e-28
-192.3 -456.20001 1764.5 1.1774825e-08
-203.60001 -464.79999 1796.2 inf
-212.89999 -468.39999 1808.2 inf
-219 -464.79999 1792.5 inf
-228.5 -468.60001 1805 inf
-232.60001 -461.29999 1774.9 inf
-242.89999 -466.60001 1793.2 inf
-249.60001 -464.70001 1783.8 inf
-263.60001 -476 1825.1 inf
-265.10001 -464.89999 1780 inf
-275.10001 -468.89999 1793 inf
-281.70001 -467 1783.2 inf
-290.20001 -468.10001 1785.1 2.7301332e+35
-300.10001 -471.70001 1796 inf
-307.5 -470.89999 1790.5 inf
-315.79999 -471.70001 1790.7 9.4337853e-09
-323 -471 1784.8 31.262699
-333.10001 -474.20001 1794.3 8.0313018e-09
-339.20001 -471.70001 1781.7 inf
-347.20001 -472 1779.7 inf
-358.70001 -476.89999 1795.1 inf
-365.60001 -475.60001 1787 1.7259081e-13
-376.20001 -479.10001 1796.8 3.0219715e-23
-379.79999 -473.70001 1773 3.6580618e+25
-391.60001 -478.60001 1787.5 3.3800929e+35
-403.10001 -482.89999 1800 inf
-404.60001 -475.29999 1767.7 inf
-424.29999 -488.89999 1814.9 inf
-423.70001 -479.10001 1774.3 2.8331646e+35
-431.79999 -479.39999 1771.3 inf
-440.39999 -480.10001 1769.6 inf
-456.5 -488.89999 1798 inf
-465.70001 -490 1797.7 inf
-467.89999 -483.89999 1770.7 inf
-475.60001 -483.60001 1765.1 inf
-480.10001 -480.10001 1747.9 inf
-498.89999 -490.79999 1782 inf
-505.89999 -489.70001 1773.1 5.8673162e+25
-510.89999 -486.79999 1757.4 9.1507134e+15
-510.60001 -478.89999 1723.8 2.0888928e-18
-532 -491.39999 1763.7 inf
-546.79999 -497.5 1780.3 1.0274389e+16
-549.90002 -492.89999 1758.5 inf
-550.90002 -486.60001 1730.2 0.00058809121
-559.70001 -487.20001 1726.9 0.00077119342
-573.70001 -492.29999 1739.2 3834520.5
-594 -502.60001 1769.8 8.9571432e+20
-601 -501.5 1759.7 inf
-602.79999 -496.20001 1734.6 inf
-613.20001 -497.89999 1734.5 inf
-633.79999 -507.89999 1762.9 inf
-657.20001 -519.79999 1797.4 inf
-646.5 -504.70001 1738 inf
-656.70001 -506.10001 1736.1 2.8327558e+35
-656.59998 -499.60001 1706.6 3.0408533e+35
-693.70001 -521.29999 1773.8 inf
-686.20001 -509.39999 1725.5 inf
-697.79999 -511.70001 1725.7 inf
-709.29999 -513.90002 1725.5 inf
-731.90002 -524 1751.5 2789540.5
-721.20001 -510.29999 1697.3 9.7246156e+15
-737.29999 -515.70001 1707 1.693267e-18
-746 -515.79999 1699.1 inf
751.20001 -528 1704.9 inf
735.09998 -522.59998 1695.9 3.2485533e+35
719.90002 -517.79999 1688.4 0.00067976688
736.70001 -536.20001 1757.2 2.4206014e+35
711.5 -524 1725 inf
694.70001 -517.90002 1712.4 inf
711.40002 -536.79999 1783.3 6.3547013e+25
678.5 -518.29999 1729 inf
666.59998 -515.59998 1727.3 inf
650.90002 -510 1715.2 inf
638.29999 -506.5 1710.5 inf
640.29999 -514.79999 1745.4 inf
620.79999 -505.70001 1721.1 inf
610.40002 -503.89999 1721.4 inf
605 -506.29999 1735.9 inf
605.40002 -513.59998 1767.5 inf
589.70001 -507.20001 1751.6 5.87302e+25
567.40002 -495 1715.1 inf
567.59998 -502.29999 1746.3 inf
556.20001 -499.29999 1741.8 1.3678623e-13
543.70001 -495.39999 1733.6 5.2135562e+20
529.40002 -489.60001 1718.5 0.00049594149
527.09998 -495 1742.7 2.3143374e+35
516 -492 1737.6 inf
505.60001 -489.60001 1734.1 inf
496.5 -488.5 1735.1 1.570429e+11
496 -496 1766.6 4.1748275e+25
481 -488.89999 1746.2 inf
462.89999 -478.5 1713.1 inf
465.60001 -489.5 1757.4 inf
452.89999 -484.39999 1743.5 inf
449.60001 -489.39999 1765.8 inf
436.29999 -483.5 1748.6 inf
427 -481.79999 1746.8 inf
417.10001 -479.39999 1742 inf
414.20001 -485.20001 1767.1 inf
400.89999 -478.70001 1747 inf
394.10001 -479.89999 1755.3 inf
384.20001 -477.29999 1749.1 5.8663939e+25
381.89999 -484.20001 1778.4 3.8557462e+30
368.39999 -476.89999 1754.8 1.4800013e+16
360.70001 -477.10001 1758.7 34.517647
349.79999 -472.70001 1745.9 5.6425764e-33
335 -463 1712.8 5.8215836e-33
336.60001 -475.79999 1763.7 2.6250608e+35
329.20001 -476.39999 1768.8 inf
316.10001 -468.5 1742.2 1985100.2
309 -469.29999 1748 8.8084593e+15
302.39999 -470.79999 1756.5 inf
292 -466.39999 1742.8 inf
288.10001 -472.5 1768 inf
282.79999 -476.5 1785.7 inf
271.10001 -469.60001 1762.2 inf
262.89999 -468.60001 1760.8 inf
252.8 -464.10001 1746.3 inf
246.39999 -466.29999 1756.8 inf
237.7 -464.10001 1750.3 inf
230.39999 -464.60001 1754.3 inf
225.89999 -471 1780.9 inf
221.7 -478.29999 1810.6 inf
210.10001 -469.79999 1779.9 inf
204.3 -474.20001 1798.5 4.00552e+30
196.2 -473.20001 1796.5 5.865442e+25
189.2 -475 1805 8.0349327e-09
178.60001 -467.39999 1777.6 6.1138907e-09
172.60001 -471.79999 1795.8 2392172.5
164.60001 -470.70001 1793.3 1.3095804e+16
155 -465.10001 1773.1 inf
148.2 -467.39999 1783.3 1.2285466e-13
139.89999 -465 1775.4 6.1157016e+25
131.7 -462.70001 1767.7 4.4165942e+25
122.3 -456 1743 inf
117.8 -467.5 1788.3 2.8323517e+35
110.1 -467 1787.1 inf
101.5 -462.39999 1770.4 inf
94.099998 -463 1773.5 inf
86.5 -462.70001 1773 inf
79.099998 -463.29999 1776.1 inf
71.400002 -462.29999 1772.9 inf
63.5 -459.20001 1761.7 inf
56.200001 -460.79999 1768.4 inf
49 -463.20001 1778.1 inf
41.099998 -459.10001 1762.4 inf
33.799999 -462.20001 1774.6 inf
26 -457.5 1757 38.517769
18.700001 -460.60001 1769.3 1.5314895e-18
11.2 -459.89999 1766.7 1.6224408e+35
3.8 -461.29999 1772 1.7398881e+11
-3.8 -463.79999 1781.8 0.00067987724
-11.2 -459.29999 1764.3 inf
-18.6 -457.60001 1757.4 3.9493586e-28
-26.299999 -462.29999 1775.4 1.1774825e-08
-33.5 -457.70001 1757.5 inf
-40.799999 -456.5 1752.6 inf
-48.400002 -458.20001 1758.6 inf
-56.599998 -464.20001 1781.4 inf
-63.700001 -461.20001 1769.3 inf
-71.5 -463 1775.8 inf
-78.5 -460 1763.4 inf
-85.199997 -455.89999 1746.8 inf
-92.300003 -454.29999 1739.9 inf
-102.9 -468.79999 1794.9 inf
-107.8 -457.29999 1749.9 inf
-117.4 -465.79999 1781.5 2.7301332e+35
-124.2 -463 1769.8 inf
-131.8 -463.10001 1769.2 inf
-138.10001 -459.20001 1753 9.4337853e-09
-145.8 -460 1754.7 31.262699
-152.89999 -458.79999 1748.7 8.0313018e-09
-162.8 -465.79999 1774.5 inf
-169.8 -464.10001 1766.4 inf
-177.89999 -465.5 1770.3 inf
-184.7 -463.60001 1761.5 1.7259081e-13
-195.2 -470.89999 1787.7 3.0219715e-23
-202.3 -469.5 1780.6 3.6580618e+25
-210.10001 -469.89999 1780.2 3.3800929e+35
-214.89999 -463.60001 1754.6 inf
-226.2 -471.60001 1782.9 inf
-230.39999 -464.5 1754 inf
-242 -472.5 1782.2 2.8331646e+35
-249.3 -471.79999 1777.5 inf
-256 -470 1768.5 inf
-265.39999 -473.10001 1777.8 inf
-275.60001 -477.5 1792 inf
-285 -480.20001 1799.7 inf
-287.10001 -470.89999 1762.2 inf
-294.10001 -469.89999 1755.6 inf
-304.79999 -474.5 1770.5 inf
-312 -473.70001 1764.6 5.8673162e+25
-316.60001 -469.10001 1744.5 9.1507134e+15
-325.60001 -471.10001 1749.1 2.0888928e-18
-338.5 -478.60001 1774.2 inf
-349.29999 -482.70001 1786.1 1.0274389e+16
-358.60001 -484.70001 1790.2 inf
-369.5 -488.70001 1801.7 0.00058809121
-368.10001 -476.60001 1753.7 0.00077119342
-377.10001 -478.20001 1755.9 3834520.5
-397 -493.20001 1807.9 8.9571432e+20
-406.70001 -495.29999 1812 inf
-406.60001 -485.60001 1772.3 inf
-415.20001 -486.39999 1771.4 inf
-426.5 -490.29999 1781.6 inf
-430.39999 -485.70001 1760.8 inf
-444.29999 -492.39999 1780.9 inf
-453.60001 -493.79999 1781.8 2.8327558e+35
-454.10001 -485.70001 1748 3.0408533e+35
-465.5 -489.29999 1756.8 inf
-472.10001 -487.89999 1747.2 inf
-489.20001 -497.29999 1776.3 inf
-490.70001 -490.70001 1747.6 inf
-505.20001 -497.10001 1765.7 2789540.5
-507.29999 -491.29999 1740.1 9.7246156e+15
-517.29999 -493.20001 1741.9 1.693267e-18
-524.79999 -492.70001 1734.9 inf
-536 -495.70001 1740.2 7.8517965e+20
-552.5 -503.39999 1761.7 2.737265e+30
-549.29999 -493.20001 1720.2 42.564613
-555.40002 -491.39999 1708.5 7.2734858e-09
-584.40002 -509.79999 1766.6 3.5367006e+25
-578.70001 -497.79999 1718.9 inf
-602.40002 -511 1758.6 inf
-595.70001 -498.39999 1709 inf
-619 -511 1745.8 inf
-628.40002 -511.89999 1742.2 inf
-647.29999 -520.40002 1764.5 1.6240714e+35
-641.79999 -509.29999 1719.9 inf
-645.79999 -506 1701.7 inf
-672.40002 -520.20001 1742.6 inf
-680.59998 -520 1734.5 inf
-673.29999 -508 1687.1 inf
-674.59998 -502.89999 1662.5 inf
-707.09998 -520.79999 1714.4 inf
-722.79999 -526.09998 1723.8 8.582438e+20
-742.09998 -533.79999 1740.9 7.0460695e-09
-758.59998 -539.40002 1750.7 8.2999211e-38
-750.09998 -527.20001 1702.5 44.533363
757.90002 -541.40002 1714.1 2.3143374e+35
725.29999 -524 1667.2 inf
719.40002 -525.79999 1681.3 inf
701.20001 -518.59998 1666 1.570429e+11
700.90002 -524.70001 1693.5 4.1748275e+25
701.79999 -531.70001 1724.2 inf
680.20001 -521.59998 1699 inf
685.79999 -532.40002 1742 inf
673 -529.09998 1738.4 inf
639.90002 -509.5 1680.6 inf
643.29999 -518.79999 1718.5 inf
631.70001 -516.09998 1716.2 inf
622.29999 -515.20001 1719.8 inf
620.20001 -520.29999 1743.6 inf
594.90002 -505.89999 1701.4 inf
586.59998 -505.70001 1707 inf
586.29999 -512.5 1736.2 5.8663939e+25
566.90002 -502.60001 1708.4 3.8557462e+30
562.40002 -505.70001 1725 1.4800013e+16
554.20001 -505.60001 1730.3 34.517647
548.09998 -507.5 1742.4 5.6425764e-33
532.70001 -500.70001 1724.2 5.8215836e-33
532 -507.60001 1753.9 2.6250608e+35
523.20001 -507 1757 inf
500.29999 -492.39999 1711.2 1985100.2
494.5 -494.5 1723.4 8.8084593e+15
488.10001 -496.10001 1733.7 inf
477.60001 -493.39999 1729.1 inf
469.5 -493.10001 1732.7 inf
461.79999 -493.29999 1738 inf
451.89999 -491.10001 1734.7 inf
441.70001 -488.60001 1729.8 inf
433 -487.60001 1730.7 inf
424.29999 -486.60001 1731.1 inf
421.79999 -492.79999 1757.3 inf
411.70001 -490.10001 1751.7 inf
401 -486.70001 1743.1 inf
386.5 -478.29999 1716.6 inf
378.79999 -478.20001 1720 inf
372.70001 -480.29999 1731 4.00552e+30
367.10001 -483 1744.1 5.865442e+25
359.39999 -483.10001 1747.9 8.0349327e-09
344.60001 -473.29999 1715.6 6.1138907e-09
343.39999 -482.29999 1751.4 2392172.5
334 -480 1746.1 1.3095804e+16
325.89999 -479.29999 1746.8 inf
319.20001 -480.79999 1755 1.2285466e-13
309.79999 -478.10001 1748.1 6.1157016e+25
300.79999 -475.89999 1742.9 4.4165942e+25
296.29999 -481 1764.1 inf
284.29999 -473.79999 1740.4 2.8323517e+35
278.39999 -476.70001 1753.7 inf
270 -475.39999 1751.2 inf
265.10001 -480.29999 1771.7 inf
255.10001 -475.89999 1757.8 inf
245.60001 -472.29999 1746.7 inf
237 -470.20001 1740.8 inf
232.89999 -477.20001 1769.1 inf
220.7 -467.5 1735 inf
215.39999 -472.29999 1754.8 inf
208.7 -474.29999 1764 inf
202.10001 -476.60001 1774.6 inf
193.10001 -473.20001 1763.5 38.517769
187.60001 -478.60001 1785.5 1.5314895e-18
177.2 -471.29999 1759.6 1.6224408e+35
170 -472.29999 1764.8 1.7398881e+11
163.60001 -475.5 1778.2 0.00067987724
153.8 -469 1755.1 inf
149 -477.60001 1789 3.9493586e-28
139.5 -471.20001 1766.2 1.1774825e-08
130.7 -466.60001 1750 inf
124.1 -470 1763.8 inf
116.3 -469.10001 1761.4 inf
108.5 -467.5 1756.4 inf
101.1 -468.20001 1759.8 inf
94.5 -472.29999 1776.1 inf
85.900002 -466.89999 1756.5 inf
78.900002 -469.39999 1766.6 inf
70.900002 -466.39999 1756 inf
63.099998 -463.79999 1746.6 inf
55.700001 -464.60001 1750.1 inf
48.5 -466.39999 1757.4 2.7301332e+35
40.400002 -459 1729.9 inf
33.400002 -463.60001 1747.5 inf
26.5 -473.20001 1784.5 9.4337853e-09
18.5 -462.70001 1744.8 31.262699
11.1 -464.10001 1750.1 8.0313018e-09
3.7 -460.10001 1734.8 inf
-3.7 -464.60001 1751.9 inf
-11.2 -465.79999 1756.6 inf
-18.5 -463.39999 1747.4 1.7259081e-13
-25.799999 -460.79999 1737.3 3.0219715e-23
-33.700001 -467.60001 1762.8 3.6580618e+25
-41.5 -471.10001 1775.9 3.3800929e+35
-48.200001 -463.5 1746.5 inf
-56.400002 -469.60001 1769.3 inf
-63.700001 -468.60001 1764.9 inf
-70.099998 -460.89999 1735.4 2.8331646e+35
-78.099998 -464.89999 1749.8 inf
-85.599998 -465.5 1751.2 inf
-93.300003 -466.5 1754.3 inf
-101.3 -469.20001 1763.6 inf
-110 -474 1781.1 inf
-115.4 -465.39999 1747.3 inf
-122.2 -462.89999 1737.1 inf
-132 -471.5 1768.3 inf
-137.2 -463.70001 1737.6 5.8673162e+25
-145.10001 -465 1741.4 9.1507134e+15
-154 -469.60001 1757.5 2.0888928e-18
-159.60001 -463.89999 1734.7 inf
-168.7 -468.5 1750.7 1.0274389e+16
-177.39999 -471.89999 1761.7 inf
-184.2 -469.89999 1752.9 0.00058809121
-192.60001 -472 1759.1 0.00077119342
-203.2 -479.29999 1784.6 3834520.5
-210.39999 -478.10001 1778.3 8.9571432e+20
-217.60001 -477.20001 1772.9 inf
-225.89999 -478.60001 1776.3 inf
-230.3 -471.89999 1749.2 inf
-239 -474.20001 1755.7 inf
-246.7 -474.39999 1754.3 inf
-255.89999 -477.5 1763.6 inf
-265.39999 -480.79999 1773.5 2.8327558e+35
-275.79999 -485.60001 1788.8 3.0408533e+35
-276.89999 -474.20001 1744.4 inf
-290.10001 -483.39999 1775.9 inf
-293.20001 -475.89999 1745.5 inf
-306.79999 -485.5 1778 inf
-311.10001 -480.10001 1755.4 2789540.5
-319.29999 -480.79999 1755.3 9.7246156e+15
-330.5 -486 1771.1 1.693267e-18
-337.20001 -484.5 1762.9 inf
-338.5 -475.39999 1726.2 7.8517965e+20
-349.79999 -480.39999 1741.6 2.737265e+30
-361.39999 -485.70001 1757.5 42.564613
-368.60001 -485 1751.6 7.2734858e-09
-379.89999 -489.5 1764.5 3.5367006e+25
-381.79999 -482 1733.8 inf
-397.29999 -491.70001 1764.9 inf
-405.29999 -491.89999 1762.1 inf
-409.20001 -487.10001 1740.8 inf
-416.10001 -486.10001 1733.3 inf
-421.89999 -483.79999 1721.1 1.6240714e+35
-437 -492.10001 1746.7 inf
-443.60001 -490.70001 1737.6 inf
-453.70001 -493.10001 1741.8 inf
-461 -492.5 1735.2 inf
-473.70001 -497.60001 1748.7 inf
-478.10001 -493.89999 1730.8 inf
-493.39999 -501.39999 1752.4 inf
-504.89999 -504.89999 1759.9 8.582438e+20
-510.70001 -502.60001 1746.8 7.0460695e-09
-519.70001 -503.60001 1745.1 8.2999211e-38
-529.5 -505.29999 1745.7 44.533363
-521.20001 -489.89999 1686.8 8.9499374e+20
-545.29999 -504.89999 1733.4 inf
-549.90002 -501.70001 1716.9 8.0531155e-09
-565.79999 -508.79999 1735.6 34.650398
-577.59998 -512.09998 1740.8 2132090.5
-592.29999 -517.70001 1754 1.9991472e+35
-594.90002 -512.79999 1731.2 5.3847051e+25
-614.70001 -522.70001 1758.3 inf
-606.5 -508.79999 1705.1 inf
-620.59998 -513.79999 1715.1 inf
-638.20001 -521.40002 1734.1 5.1448126e+25
-646.59998 -521.40002 1727.3 inf
-639.40002 -509.10001 1679.2 inf
-653.59998 -513.79999 1688 inf
-671.20001 -521.09998 1704.8 inf
-695.40002 -533.29999 1737.2 2.8351945e+35
-698.20001 -528.90002 1715.2 inf
-700.90002 -524.70001 1693.5 7.8561087e+20
-740.59998 -547.79999 1760.3 7.1124687e+20
-730.5 -534 1707.5 inf
-732.40002 -529.20001 1683.7 1.0383709e-13
-747.90002 -534.20001 1691.3 2.3418572e+11
730.29999 -530 1645.1 2.6250608e+35
719.79999 -528.40002 1648.5 inf
713.40002 -529.79999 1661.2 1985100.2
705.29999 -530 1670 8.8084593e+15
696.29999 -529.5 1676.3 inf
699.5 -538.40002 1712.4 inf
681.29999 -530.79999 1695.8 inf
666.09998 -525.5 1686 inf
670.5 -535.59998 1726.1 inf
649.20001 -525.20001 1699.4 inf
654.59998 -536.40002 1743.1 inf
641.20001 -532.20001 1736.5 inf
628.70001 -528.79999 1732 inf
612 -521.70001 1715.2 inf
593.70001 -512.90002 1692.6 inf
595.59998 -521.70001 1727.9 inf
575.90002 -511.5 1700.1 inf
573.40002 -516.40002 1722.6 4.00552e+30
558.20001 -510 1706.8 5.865442e+25
548.59998 -508.5 1707.7 8.0349327e-09
541.29999 -509.20001 1715.4 6.1138907e-09
529.20001 -505.29999 1707.7 2392172.5
524 -508 1722.1 1.3095804e+16
515.79999 -507.79999 1726.6 inf
496 -496 1691.6 1.2285466e-13
492.79999 -500.70001 1712.6 6.1157016e+25
485.60001 -501.39999 1719.7 4.4165942e+25
478.70001 -502.5 1728.2 inf
470.5 -502.20001 1731.8 2.8323517e+35
465.20001 -505 1746.2 inf
441.60001 -487.70001 1690.3 inf
442.70001 -497.60001 1729.3 inf
441.89999 -505.60001 1761.5 inf
429.5 -500.5 1747.8 inf
410.5 -487.20001 1705 inf
405.79999 -490.79999 1721.7 inf
399.10001 -492.20001 1730.3 inf
389.70001 -490 1726.6 inf
378.70001 -485.79999 1715 inf
373.20001 -488.60001 1728.6 inf
365.60001 -488.79999 1732.8 38.517769
351.89999 -480.60001 1706.9 1.5314895e-18
347.20001 -484.5 1724.2 1.6224408e+35
339.79999 -484.89999 1728.8 1.7398881e+11
334.20001 -487.89999 1742.5 0.00067987724
325.5 -486.39999 1740.1 inf
317.5 -485.70001 1740.8 3.9493586e-28
313.10001 -491 1762.6 1.1774825e-08
300.60001 -483.29999 1737.7 inf
293.5 -484.10001 1743.2 inf
282 -477.60001 1722.2 inf
274.20001 -477.10001 1722.9 inf
264.39999 -472.89999 1710.2 inf
255 -469.39999 1699.5 inf
246.8 -467.79999 1696.1 inf
247.89999 -484.39999 1758.7 inf
237.5 -478.70001 1740.3 inf
232.8 -484.60001 1763.9 inf
225.10001 -484.5 1765.6 inf
216.5 -482.5 1760.2 2.7301332e+35
207.3 -478.60001 1747.7 inf
198.10001 -474.60001 1734.9 inf
193.7 -482.39999 1765.4 9.4337853e-09
184.60001 -478.5 1752.5 31.262699
175.10001 -473 1734 8.0313018e-09
169.89999 -479.60001 1759.7 inf
162.8 -480.79999 1765.4 inf
153.2 -474.70001 1744.5 inf
147.3 -479.70001 1764.2 1.7259081e-13
137.60001 -472.39999 1738.4 3.0219715e-23
131.60001 -477.39999 1758.2 3.6580618e+25
124.7 -479.89999 1768.4 3.3800929e+35
114.7 -469.79999 1732.2 inf
109 -477.5 1761.6 inf
100 -470.20001 1735.3 inf
93.199997 -473.29999 1747.8 2.8331646e+35
85 -469.10001 1732.9 inf
79.599998 -481.70001 1780.4 inf
70.5 -471.39999 1743 inf
63.400002 -473.5 1751.3 inf
56.099998 -474.60001 1755.9 inf
48.400002 -472.89999 1750 inf
41.099998 -474 1754.3 inf
33.200001 -468.89999 1735.6 inf
25.9 -469.39999 1737.8 5.8673162e+25
18.5 -470.60001 1742.6 9.1507134e+15
11.2 -474.10001 1755.7 2.0888928e-18
3.7 -471.89999 1747.5 inf
-3.7 -468.89999 1736.3 1.0274389e+16
-11 -467.79999 1732.1 inf
-18.700001 -473.79999 1754.4 0.00058809121
-25.799999 -467.29999 1729.9 0.00077119342
-33.400002 -471.20001 1744.5 3834520.5
-40.299999 -465 1721 8.9571432e+20
-48.099998 -470.10001 1739.4 inf
-56.099998 -474.79999 1756.5 inf
-63.200001 -471.89999 1745.4 inf
-70.599998 -471.79999 1744.5 inf
-77.599998 -469.5 1735 inf
-85.5 -472.20001 1744.7 inf
-93.099998 -472.79999 1746 2.8327558e+35
-99.900002 -470.10001 1735 3.0408533e+35
-107.8 -471.89999 1741 inf
-115.3 -472.5 1742.2 inf
-123.1 -473.79999 1745.8 inf
-131.39999 -476.79999 1756.1 inf
-137 -470.39999 1731.1 2789540.5
-146 -475.39999 1748.4 9.7246156e+15
-153.10001 -474.29999 1743 1.693267e-18
-161 -475.5 1746.1 inf
-170.2 -480.5 1762.9 7.8517965e+20
-177.60001 -479.79999 1758.9 2.737265e+30
-184.7 -478.60001 1753.1 42.564613
-192.10001 -478.39999 1750.7 7.2734858e-09
-199.60001 -478.39999 1748.7 3.5367006e+25
-206.3 -476.39999 1739.8 inf
-217.2 -483.79999 1765.2 inf
-222.60001 -479.20001 1746.3 inf
-230.5 -480 1747 inf
-239.39999 -482.60001 1754.6 inf
-244.5 -477.70001 1734.5 1.6240714e+35
-260.29999 -493.39999 1789.6 inf
-263.5 -485 1756.6 inf
-268.5 -480.20001 1736.7 inf
-282.79999 -492 1777 inf
-290.29999 -491.5 1772.8 inf
-297.20001 -490.29999 1765.5 inf
-301.20001 -484.29999 1741.2 inf
-309.79999 -485.70001 1743.5 8.582438e+20
-320 -489.70001 1755 7.0460695e-09
-330.70001 -494.20001 1768.2 8.2999211e-38
-333.70001 -487.10001 1739.7 44.533363
-342.29999 -488.5 1741.5 8.9499374e+20
-349.29999 -487.5 1734.9 inf
-353.79999 -483.10001 1715.8 8.0531155e-09
-371.89999 -497.10001 1762.5 34.650398
-374.70001 -490.60001 1735.8 2132090.5
-381.39999 -489.20001 1727.3 1.9991472e+35
-395.39999 -497.20001 1751.8 5.3847051e+25
-404.5 -498.79999 1753.8 inf
-404.5 -489.29999 1716.2 inf
-412.79999 -489.89999 1714.7 inf
-429.10001 -500 1746.1 5.1448126e+25
-431.70001 -493.89999 1720.7 inf
-442.70001 -497.5 1729 inf
-456.10001 -503.70001 1746.3 inf
-462.39999 -502 1735.7 inf
-461.70001 -492.79999 1699.2 2.8351945e+35
-476.20001 -499.79999 1719.1 inf
-475.29999 -490.70001 1682.9 7.8561087e+20
-496.20001 -504.20001 1724.4 7.1124687e+20
-501.89999 -501.89999 1711.6 inf
-510.89999 -503 1710.3 1.0383709e-13
-518.59998 -502.79999 1704.4 2.3418572e+11
-531.5 -507.5 1715.3 2.1710547e+11
-534.40002 -502.70001 1693.6 1.0063897e+21
-547 -507.10001 1702.6 1.2992677e+11
-566.5 -517.59998 1732.5 1.0047872e-13
-562.70001 -506.89999 1690.5 31.255039
-569.70001 -505.89999 1681.5 inf
-578 -506.29999 1676.6 inf
-589.09998 -508.89999 1679.3 inf
-620.90002 -529.20001 1740.1 inf
-617.20001 -519.09998 1700.2 2.3143327e+35
-628.90002 -522.09998 1703.2 3.3698426e+30
-631.79999 -517.59998 1681.9 6.8410793e+25
-642.5 -519.79999 1681.9 inf
-650.79999 -519.79999 1675 inf
-664.59998 -524.29999 1682.2 inf
-672.09998 -523.70001 1672.9 inf
-690.5 -531.40002 1690.2 inf
-695.09998 -528.59998 1673.4 inf
-695.5 -522.59998 1646.5 inf
-722.40002 -536.5 1682.5 3.6561747e+25
-735.70001 -540.09998 1685.3 7.1119343e+15
-742.09998 -538.5 1671.9 inf
751.79999 -554.20001 1687.6 1.3095804e+16
713.09998 -531.70001 1627.1 inf
723.29999 -545.59998 1678.2 1.2285466e-13
699.09998 -533.59998 1649.1 6.1157016e+25
718.09998 -554.70001 1723 4.4165942e+25
687.59998 -537.5 1677.1 inf
697.5 -552 1730.2 2.8323517e+35
659.59998 -528.5 1663.7 inf
647.29999 -525.20001 1660.3 inf
657.40002 -540.09998 1715.1 inf
621.5 -517.29999 1648.8 inf
627 -528.59998 1692.1 inf
620.40002 -530 1703.2 inf
606.29999 -524.90002 1693.3 inf
598.40002 -525.09998 1700.4 inf
596.59998 -530.70001 1725.2 inf
569.59998 -513.90002 1676.1 inf
571.09998 -522.5 1710.5 inf
557.09998 -517.09998 1698.3 38.517769
551 -518.79999 1709.8 1.5314895e-18
546.40002 -522.09998 1726.6 1.6224408e+35
528.79999 -512.90002 1701.3 1.7398881e+11
527.20001 -519.20001 1727.7 0.00067987724
503.60001 -503.60001 1680.8 inf
496.89999 -504.70001 1689.4 3.9493586e-28
489.60001 -505.29999 1696.3 1.1774825e-08
490.10001 -514 1730.6 inf
465.89999 -496.70001 1676.8 inf
467.70001 -507 1716.4 inf
456.29999 -503.10001 1707.8 inf
447.20001 -501.60001 1707 inf
436.70001 -498.60001 1700.8 inf
423 -491.60001 1681.1 inf
418.89999 -495.79999 1699.5 inf
420.79999 -507.39999 1743.7 inf
408.79999 -502.29999 1730 inf
393.89999 -493.39999 1702.9 inf
385.29999 -492.10001 1702.3 2.7301332e+35
377.10001 -491.39999 1703.3 inf
380.79999 -506.39999 1759.2 inf
367 -498.29999 1734.6 9.4337853e-09
356.29999 -494.20001 1723.5 31.262699
351.70001 -498.60001 1742.2 8.0313018e-09
337.39999 -489 1711.6 inf
327.89999 -486.20001 1704.9 inf
322.5 -489.39999 1719.2 inf
316.5 -491.89999 1731.2 1.7259081e-13
303.70001 -483.70001 1704.9 3.0219715e-23
303.79999 -496 1751.3 3.6580618e+25
295 -494.20001 1747.5 3.3800929e+35
284.39999 -489.20001 1732.4 inf
277.89999 -491.10001 1741.8 inf
269.60001 -489.89999 1739.9 inf
259.70001 -485.60001 1727 2.8331646e+35
254.5 -490 1745.1 inf
243 -482.29999 1719.7 inf
236.89999 -485.10001 1731.9 inf
230.3 -487 1740.9 inf
222.8 -487.20001 1743.4 inf
214.7 -486 1741 inf
202.60001 -475.20001 1704 inf
201.60001 -490.60001 1761.3 inf
192.89999 -488 1753.8 5.8673162e+25
185.2 -487.5 1753.8 9.1507134e+15
176.5 -484.39999 1744.1 2.0888928e-18
169.10001 -484.60001 1746.3 inf
160.10001 -480.29999 1732.1 1.0274389e+16
153.7 -483.70001 1745.8 inf
146.3 -483.89999 1747.9 0.00058809121
136.3 -475.20001 1717.5 0.00077119342
129.60001 -477.70001 1727.8 3834520.5
126.8 -495.70001 1794.4 8.9571432e+20
115.5 -480.39999 1739.8 inf
107.3 -477.20001 1729.1 inf
101.3 -484.20001 1755.4 inf
93.5 -482.60001 1750.3 inf
86 -482.20001 1749.8 inf
77.5 -475.79999 1727 inf
70.099998 -476.29999 1729.4 2.8327558e+35
63.299999 -480.39999 1745 3.0408533e+35
55.200001 -475 1725.8 inf
48.400002 -480 1744.6 inf
40.700001 -477.79999 1736.9 inf
33.400002 -478.70001 1740.6 inf
25.700001 -473.70001 1722.4 2789540.5
18.5 -477.79999 1737.8 9.7246156e+15
11.1 -478.60001 1740.9 1.693267e-18
3.7 -471.60001 1715.3 inf
-3.7 -480.20001 1746.8 7.8517965e+20
-11.1 -475.60001 1729.7 2.737265e+30
-18.5 -477.20001 1735.5 42.564613
-25.700001 -473 1720.1 7.2734858e-09
-33.099998 -475.10001 1727.3 3.5367006e+25
-40.400002 -473.79999 1722.1 inf
-48.700001 -483.10001 1755.8 inf
-55.299999 -475.5 1727.6 inf
-63 -477.79999 1735.6 inf
-69.900002 -474.89999 1724.4 inf
-77 -473 1716.7 1.6240714e+35
-84.900002 -476.39999 1728.4 inf
-92.400002 -476.70001 1728.8 inf
-101.4 -484.5 1756.6 inf
-108.9 -484.5 1755.6 inf
-115.1 -479 1734.5 inf
-122.6 -479.39999 1735.1 inf
-130 -479 1732.5 inf
-138.10001 -481.39999 1740.1 8.582438e+20
-149.2 -493.39999 1782.5 7.0460695e-09
-154.3 -485.5 1752.2 8.2999211e-38
-160.2 -480.60001 1733.3 44.533363
-170.60001 -489 1762.1 8.9499374e+20
-176.89999 -485.5 1748.2 inf
-184.10001 -484.70001 1743.5 8.0531155e-09
-193.39999 -489.29999 1758.4 34.650398
-198 -481.89999 1730 2132090.5
-208.2 -488.29999 1751.3 1.9991472e+35
-212.2 -480.20001 1720.2 5.3847051e+25
-224.10001 -489.89999 1753.4 inf
-231.39999 -489.29999 1749.1 inf
-238.3 -488 1742.1 inf
-243.8 -483.89999 1725.3 5.1448126e+25
-255.89999 -492.70001 1754.7 inf
-262.89999 -491.5 1748.2 inf
-268.20001 -487.39999 1730.9 inf
-281.10001 -496.79999 1762.2 inf
-285.10001 -490.29999 1736.4 2.8351945e+35
-290.70001 -487 1722 inf
-302.10001 -493.20001 1741.4 7.8561087e+20
-307.5 -489.79999 1726.3 7.1124687e+20
-315.39999 -490.20001 1725.1 inf
-326.79999 -496 1742.6 1.0383709e-13
-329.70001 -488.79999 1714.2 2.3418572e+11
-342.10001 -495.89999 1735.9 2.1710547e+11
-351.89999 -498.79999 1743.1 1.0063897e+21
-358.5 -497.20001 1734.1 1.2992677e+11
-368.5 -500.39999 1741.8 1.0047872e-13
-375.29999 -499.10001 1733.7 31.255039
-381.70001 -497.29999 1724 inf
-400.10001 -511 1767.9 inf
-402 -503.5 1738.1 inf
-415.20001 -510.10001 1757.2 inf
-422.10001 -508.89999 1748.8 2.3143327e+35
-425.5 -503.5 1726.3 3.3698426e+30
-431 -500.89999 1713 6.8410793e+25
-442.10001 -504.70001 1721.9 inf
-450.10001 -504.89999 1718.1 inf
-466.39999 -514.20001 1745.5 inf
-475 -514.90002 1743.3 inf
-479.5 -511.20001 1726.1 inf
-485.10001 -508.79999 1713.1 inf
-496 -511.89999 1718.6 inf
-495.29999 -503.10001 1684.1 3.6561747e+25
-513.09998 -513.09998 1712.6 7.1119343e+15
-523.79999 -515.79999 1716.2 inf
-532.29999 -516.29999 1712.5 inf
-544 -519.90002 1719 inf
-552.09998 -519.90002 1713.5 3.6880053e+30
-568.09998 -527.29999 1732.1 31.243107
-558.59998 -511 1672.6 3178120.5
-573.40002 -517.29999 1687.2 inf
-576.79999 -513.09998 1667.5 6.5936457e+25
-600.90002 -527.29999 1707.6 inf
-608.79999 -527.09998 1700.5 3.5307773e+30
-621.59998 -531.09998 1706.8 1.5697645e+11
-630.90002 -531.90002 1702.8 9.7269091e+15
-648.70001 -539.90002 1721.5 inf
-641 -526.70001 1672.2 inf
-673.79999 -546.70001 1728.6 3.6898622e+30
-659.20001 -528.20001 1662.6 inf
-688 -544.5 1706.6 2.8327542e+35
-690.70001 -540 1684.7 6.8363643e+25
-692.29999 -534.79999 1660.5 3.5282941e+30
-722.79999 -551.70001 1705.5 0.00058761623
-729.90002 -550.59998 1693.8 5.3922562e+20
-726.29999 -541.59998 1657.4 2.584368e-23
-737.70001 -543.79999 1655.8 1.2563266e+11
739.79999 -553.79999 1654 0.00067987724
739.90002 -560.29999 1682.2 inf
710.90002 -544.59998 1643.2 3.9493586e-28
694 -537.90002 1630.8 1.1774825e-08
682.70001 -535.59998 1631.5 inf
695.40002 -552.09998 1690.2 inf
679.29999 -545.90002 1678.8 inf
654.70001 -532.70001 1645.2 inf
652 -537.09998 1666.4 inf
647.09998 -540 1682.3 inf
649.20001 -548.70001 1716.9 inf
633.40002 -542.29999 1703.8 inf
620.29999 -538.09998 1697.3 inf
596 -524 1658.8 inf
598.29999 -533.20001 1694.6 inf
581.5 -525.40002 1675.9 2.7301332e+35
587.59998 -538.29999 1723.6 inf
569.09998 -528.70001 1698.9 inf
546.20001 -514.79999 1659.5 9.4337853e-09
552.5 -528.29999 1709.1 31.262699
532.79999 -517.09998 1678.1 8.0313018e-09
532.29999 -524.29999 1707.4 inf
509.5 -509.5 1664 inf
503.29999 -511.10001 1674.4 inf
501.79999 -517.59998 1701 1.7259081e-13
496.60001 -520.5 1715.5 3.0219715e-23
487.10001 -518.79999 1714.8 3.6580618e+25
478.89999 -518.5 1718.8 3.3800929e+35
464.70001 -511.5 1700.1 inf
459.79999 -514.79999 1715.9 inf
442.79999 -504.39999 1685.4 inf
435.20001 -504.5 1689.9 2.8331646e+35
425.10001 -501.70001 1684.8 inf
421.39999 -506.39999 1704.6 inf
411.20001 -503.5 1698.8 inf
402.29999 -501.89999 1697.5 inf
385.60001 -490.39999 1662 inf
387 -501.89999 1704.9 inf
372 -492.29999 1675.6 inf
369.89999 -499.5 1703.9 inf
354.10001 -488.29999 1668.7 5.8673162e+25
352.79999 -496.89999 1701.8 9.1507134e+15
346.5 -498.79999 1711.5 2.0888928e-18
337.79999 -497.20001 1709.2 inf
330.10001 -497 1711.7 1.0274389e+16
325.39999 -501.39999 1730.1 inf
316 -498.79999 1723.8 0.00058809121
313.20001 -506.5 1753.7 0.00077119342
300.89999 -499 1730.3 3834520.5
291.39999 -495.70001 1721.6 8.9571432e+20
282.5 -493.39999 1716.1 inf
276.79999 -496.70001 1730.2 inf
271.39999 -500.79999 1747.2 inf
256 -486 1697.3 inf
256.39999 -501.29999 1753.5 inf
247.60001 -499 1747.7 inf
237.8 -494.60001 1734.3 2.8327558e+35
228.39999 -490.39999 1721.7 3.0408533e+35
220.2 -488.79999 1718.1 inf
214.39999 -492.79999 1734.3 inf
206.8 -492.70001 1735.6 inf
195.39999 -483 1703.2 inf
188 -482.79999 1704.1 2789540.5
182.5 -487.79999 1723.4 9.7246156e+15
175.5 -489.29999 1730.4 1.693267e-18
167.7 -488.10001 1727.7 inf
159.7 -486.39999 1723.2 7.8517965e+20
154.60001 -494.10001 1751.7 2.737265e+30
145.2 -487.79999 1730.7 42.564613
137.39999 -486.60001 1727.6 7.2734858e-09
130.89999 -489.89999 1740.8 3.5367006e+25
122.2 -485 1724.1 inf
114.3 -483.20001 1718.8 inf
108.5 -490.20001 1744.8 inf
99.699997 -483.89999 1723.3 inf
92.699997 -485.60001 1730.2 inf
85.900002 -489.20001 1743.8 1.6240714e+35
77.800003 -485.5 1731.2 inf
70.800003 -488.39999 1742.5 inf
63.5 -489.60001 1747.2 inf
56.200001 -490.5 1751 inf
48.299999 -486.29999 1736.2 inf
40.599998 -484 1728.5 inf
32.799999 -476.79999 1702.8 inf
25.799999 -483.70001 1727.9 8.582438e+20
18.6 -488 1743.6 7.0460695e-09
11.1 -486.10001 1736.9 8.2999211e-38
3.7 -478.70001 1710.5 44.533363
-3.8 -492 1758.1 8.9499374e+20
-11 -479.29999 1712.5 inf
-18.4 -481.70001 1721 8.0531155e-09
-26 -486.39999 1737.6 34.650398
-32.900002 -478.70001 1709.8 2132090.5
-40 -476.5 1701.4 1.9991472e+35
-47.700001 -481 1717.4 5.3847051e+25
-55.299999 -482.60001 1722.5 inf
-62.900002 -484.79999 1729.8 inf
-71.5 -492.89999 1758.3 inf
-77.699997 -484.79999 1728.9 5.1448126e+25
-85.199997 -485 1728.8 inf
-92.800003 -486.39999 1732.8 inf
-99.099998 -480.89999 1712.4 inf
-107.3 -484.70001 1725.1 inf
-113.3 -478.79999 1703.2 2.8351945e+35
-122 -484.10001 1721.2 inf
-130.7 -489.10001 1737.9 7.8561087e+20
-137.8 -487.89999 1732.3 7.1124687e+20
-146 -490.39999 1740.1 inf
-152.8 -488.10001 1730.3 1.0383709e-13
-160.2 -488.20001 1729.3 2.3418572e+11
-168.2 -489.79999 1733.5 2.1710547e+11
-175.89999 -490.39999 1734.2 1.0063897e+21
-182.8 -488.79999 1726.9 1.2992677e+11
-188.7 -484.60001 1710.6 1.0047872e-13
-198.7 -491.10001 1731.9 31.255039
-204.7 -487.60001 1717.8 inf
-216.8 -498.39999 1753.8 inf
-221 -490.60001 1724.5 inf
-225.89999 -485.20001 1703.4 inf
-237.7 -494.29999 1733.4 2.3143327e+35
-243.7 -491.10001 1720 3.3698426e+30
-252.5 -493.70001 1727 6.8410793e+25
-261.89999 -497.29999 1737.1 inf
-272.60001 -503 1754.7 inf
-278.89999 -500.39999 1743.2 inf
-288.39999 -503.70001 1752 inf
-291.10001 -495.29999 1720.2 inf
-298.5 -494.89999 1716.1 inf
-300.5 -485.89999 1682 inf
-318.70001 -503 1738.6 3.6561747e+25
-321.79999 -495.89999 1711 7.1119343e+15
-332.79999 -501.20001 1726.1 inf
-340.20001 -500.70001 1721.3 inf
-348.29999 -501.5 1720.8 inf
-353.89999 -498.60001 1707.5 3.6880053e+30
-368.79999 -508.5 1738.5 31.243107
-369.39999 -498.79999 1701.6 3178120.5
-385.10001 -509.60001 1735 inf
-389.10001 -504.70001 1714.4 6.5936457e+25
-394.20001 -501.29999 1699.2 inf
-406.10001 -506.60001 1713.5 3.5307773e+30
-415 -508.10001 1714.5 1.5697645e+11
-423.89999 -509.39999 1714.9 9.7269091e+15
-430.70001 -508.29999 1707 inf
-434.79999 -504 1688.2 inf
-449.89999 -512.5 1712.3 3.6898622e+30
-453 -507.20001 1690.4 inf
-465.29999 -512.20001 1702.4 2.8327542e+35
-474.39999 -513.59998 1702.4 6.8363643e+25
-480.39999 -511.60001 1691.1 3.5282941e+30
-499.39999 -523.29999 1725.1 0.00058761623
-503.60001 -519.5 1707.2 5.3922562e+20
-501.60001 -509.39999 1668.8 2.584368e-23
-507.70001 -507.70001 1658.1 1.2563266e+11
-532.79999 -524.70001 1708.8 0
-534.5 -518.70001 1683.4 0
-539.70001 -516 1669.2 0
-554.40002 -522.5 1684.5 0
-560.90002 -521.09998 1674.1 0
-573.59998 -525.5 1682.3 0
-580.5 -524.40002 1672.8 0
-578.29999 -515.40002 1637.7 0
-604.40002 -531.40002 1682.5 0
-622.59998 -540.09998 1703.6 0
-631.5 -540.70001 1698.5 0
-631.70001 -533.90002 1670.3 0
-641.09998 -534.90002 1666.5 0
-654.29999 -539.09998 1672.3 0
-660.90002 -537.79999 1660.9 0
-672.59998 -540.59998 1662.2 0
-684.70001 -543.59998 1663.9 0.87440002
-704.09998 -552.29999 1682.7 0.86229998
-721.29999 -559.09998 1695.4 0.85970002
-721.29999 -552.59998 1667.4 0.85600001
-707.5 -535.70001 1608 0.83719999
-754.29999 -564.59998 1686.6 0.83029997
768.90002 -584.40002 1712.9 inf
723.79999 -556.40002 1638.9 inf
693.59998 -539.5 1596.8 1.7259081e-13
717.20001 -564.40002 1679.4 3.0219715e-23
698.40002 -556.20001 1662.8 3.6580618e+25
704.20001 -567.59998 1705.3 3.3800929e+35
672.09998 -548.40002 1654.7 inf
673.20001 -556.09998 1685.8 inf
643.59998 -538.29999 1638.8 inf
643.29999 -545 1666.5 2.8331646e+35
631.90002 -542.20001 1664.9 inf
617.09998 -536.40002 1653.9 inf
611.70001 -538.70001 1667.7 inf
611.70001 -546 1696.9 inf
584.5 -528.90002 1649.8 inf
589.79999 -541 1694.1 inf
574.20001 -534 1678.4 inf
564.79999 -532.70001 1680.3 inf
551.90002 -528.09998 1671.5 5.8673162e+25
543.70001 -527.79999 1676.3 9.1507134e+15
533.90002 -526 1676 2.0888928e-18
520.90002 -520.90002 1665.3 inf
510.10001 -517.90002 1660.9 1.0274389e+16
505.60001 -521.29999 1676.9 inf
502 -525.70001 1696.5 0.00058809121
484.89999 -515.90002 1669.7 0.00077119342
482.5 -521.70001 1693.4 3834520.5
475.79999 -523 1702.5 8.9571432e+20
454.89999 -508.39999 1659.2 inf
454.29999 -516.5 1690.2 inf
449.70001 -520.09998 1706.8 inf
429.39999 -505.39999 1662.3 inf
426.89999 -511.5 1686.7 inf
420.89999 -513.59998 1698 inf
414.79999 -515.59998 1708.7 2.8327558e+35
400 -506.70001 1682.9 3.0408533e+35
389.5 -502.89999 1674.1 inf
383.29999 -504.70001 1683.8 inf
379.70001 -510.10001 1705.4 inf
370.29999 -507.79999 1701.3 inf
369.29999 -517 1735.9 2789540.5
352 -503.39999 1693.2 9.7246156e+15
347.70001 -508.20001 1713.1 1.693267e-18
340.89999 -509.39999 1720.2 inf
333.79999 -510.29999 1726.5 7.8517965e+20
320.70001 -501.79999 1700.5 2.737265e+30
312.70001 -501.10001 1701.2 42.564613
299.60001 -491.89999 1672.4 7.2734858e-09
297.60001 -501 1706.5 3.5367006e+25
288.89999 -499 1702.4 inf
283.70001 -503.10001 1718.9 inf
270.60001 -493 1686.6 inf
263.10001 -492.79999 1688.5 inf
259.39999 -499.89999 1715.6 inf
251.2 -498.60001 1713.3 1.6240714e+35
243.5 -498.20001 1714.2 inf
235 -496.10001 1708.9 inf
227.60001 -496.10001 1711.2 inf
223.39999 -503.5 1738.8 inf
216 -504.10001 1742.7 inf
207.5 -501.89999 1737 inf
197.89999 -496.5 1720.2 inf
190.89999 -497.70001 1726.1 8.582438e+20
184.3 -500.20001 1736.3 7.0460695e-09
175 -495.10001 1720.2 8.2999211e-38
168.7 -498.60001 1733.9 44.533363
159 -491.89999 1712.1 8.9499374e+20
153.10001 -496.79999 1730.4 inf
143.3 -488.60001 1703 8.0531155e-09
136.8 -491.79999 1715.4 34.650398
129.2 -490.79999 1713.3 2132090.5
122.5 -493.79999 1724.8 1.9991472e+35
114.1 -489.60001 1711 5.3847051e+25
106.6 -489 1710 inf
100 -492.39999 1722.8 inf
92.099998 -490 1715.3 inf
85 -491.29999 1720.4 5.1448126e+25
76.900002 -486.89999 1705.8 inf
70 -489.89999 1717 inf
62.299999 -487.10001 1707.6 inf
55.200001 -489.70001 1717.3 inf
47.599998 -487.5 1709.9 2.8351945e+35
40.299999 -486.70001 1707.8 inf
33 -486.89999 1708.8 7.8561087e+20
25.700001 -488.60001 1714.8 7.1124687e+20
18.299999 -486.60001 1708.2 inf
11 -485.70001 1705 1.0383709e-13
3.7 -493.60001 1732.9 2.3418572e+11
-3.7 -485.60001 1704.7 2.1710547e+11
-11 -489.10001 1717 1.0063897e+21
-18.4 -488.60001 1715.2 1.2992677e+11
-25.700001 -488.20001 1713.6 1.0047872e-13
-32.900002 -485.89999 1705.3 31.255039
-40.700001 -492 1726.3 inf
-48.200001 -492.89999 1729.3 inf
-54.900002 -486.79999 1707 inf
-62.599998 -489.5 1716.2 inf
-69.400002 -486 1703.2 2.3143327e+35
-77.300003 -489.5 1714.9 3.3698426e+30
-85.099998 -492.10001 1723.3 6.8410793e+25
-91.5 -487 1704.8 inf
-101.3 -499 1745.9 inf
-106.9 -490.39999 1715 inf
-114.4 -491 1715.9 inf
-120.9 -487.39999 1702.5 inf
-129.7 -492.79999 1720.1 inf
-136 -489 1705.7 inf
-145.2 -495.29999 1726.4 3.6561747e+25
-151.8 -492.39999 1715.2 7.1119343e+15
-160.89999 -497.70001 1732.3 inf
-165.2 -488.39999 1698.2 inf
-174.89999 -494.89999 1719.6 inf
-185 -502.29999 1743.6 3.6880053e+30
-191.60001 -499.60001 1732.8 31.243107
-197.7 -496 1718.4 3178120.5
-202.89999 -490.70001 1698 inf
-212.2 -495.10001 1711.6 6.5936457e+25
-219.39999 -494.60001 1707.9 inf
-230.10001 -501.70001 1730.4 3.5307773e+30
-234.5 -495.10001 1705.5 1.5697645e+11
-245.89999 -503.10001 1731 9.7269091e+15
-254.10001 -504.5 1733.6 inf
-257.20001 -495.79999 1701.3 inf
-266.10001 -498.39999 1707.9 3.6898622e+30
-274 -499.20001 1708.1 inf
-279.10001 -495 1691.1 2.8327542e+35
-288.79999 -498.79999 1701.6 6.8363643e+25
-303.10001 -510.20001 1738 3.5282941e+30
-305.5 -501.70001 1705.9 0.00058761623
-318.39999 -510.20001 1732.1 5.3922562e+20
-323.60001 -506.29999 1715.8 2.584368e-23
-329.39999 -503.60001 1703.5 1.2563266e+11
-335.60001 -501.39999 1693.2 0
-348.10001 -508.79999 1714.8 0
-349.70001 -500.10001 1682 0
-361.29999 -505.89999 1698.3 0
-371.79999 -509.79999 1708.2 0
-378.60001 -508.60001 1700.6 0
-383 -504.29999 1682.3 0
-396.89999 -512.5 1706.1 0
-405.10001 -513.20001 1704.6 0
-415.10001 -516 1709.9 0
-425.39999 -519 1715.9 0
-430.70001 -516.09998 1702 0
-438.70001 -516.29999 1698.6 0
-438.79999 -507.39999 1664.8 0
-453.70001 -515.79999 1688 0
-473.39999 -529.09998 1727 0
-466.70001 -513 1669.8 0.87440002
-486.29999 -525.90002 1706.9 0.86229998
-492.20001 -523.70001 1695 0.85970002
-501.20001 -524.90002 1693.7 0.85600001
-508.10001 -523.90002 1685.3 0.83719999
-520.70001 -528.70001 1695.6 0.83029997
-524.70001 -524.70001 1677.3 0.81330001
-530.09998 -522.20001 1664 0.7895
-543.59998 -527.70001 1676 0.79589999
-561.40002 -537.20001 1700.4 0.73809999
-566 -533.90002 1683.9 0.70859998
-570.40002 -530.5 1667.3 0.704
-578.59998 -530.70001 1661.8 0.69730002
-583.09998 -527.59998 1645.7 0.69510001
-596.5 -532.40002 1654.6 0.68809998
-605.29999 -533.09998 1650.2 0.6613
-626.79999 -544.79999 1679.9 0.67189997
-633 -543.20001 1667.9 0.66320002
-649.70001 -550.40002 1683.1 0.65270001
-653.79999 -546.90002 1665.2 0.64130002
-667.40002 -551.29999 1671.1 0.63230002
-671.29999 -547.79999 1652.8 0.62330002
-691.09998 -557.09998 1673.4 0.60600001
-692.29999 -551.29999 1648.2 0.59439999
-700.79999 -551.5 1640.8 0.57389998
-727.70001 -566 1675.8 0.58990002
-732.29999 -563 1658.4 0.5722
-746.29999 -567.20001 1662 0.56809998
753.40002 -581.20001 1671.2 1.0274389e+16
721.59998 -563.09998 1627.5 inf
705 -556.59998 1616.7 0.00058809121
692.40002 -553.09998 1614.6 0.00077119342
703.5 -568.70001 1668.5 3834520.5
678.29999 -555 1635.9 8.9571432e+20
650.5 -538.79999 1595.3 inf
660.79999 -554.09998 1648.4 inf
662 -562.09998 1679.9 inf
653 -561.5 1685.4 inf
617.20001 -537.59998 1620.1 inf
620.40002 -547.5 1656.9 inf
619.5 -553.90002 1683.4 2.8327558e+35
607.79999 -550.70001 1680.2 3.0408533e+35
594.90002 -546.29999 1673.3 inf
587.79999 -547.29999 1682.6 inf
570.20001 -538.29999 1660.9 inf
552.20001 -528.70001 1637 inf
555 -539 1675.1 2789540.5
546.40002 -538.40002 1679.1 9.7246156e+15
533.29999 -533.29999 1668.6 1.693267e-18
516.20001 -523.90002 1644.5 inf
509.20001 -524.70001 1652.4 7.8517965e+20
496.20001 -519.29999 1640.4 2.737265e+30
501.39999 -533 1689.1 42.564613
493.10001 -532.5 1692.7 7.2734858e-09
481.79999 -528.79999 1685.5 3.5367006e+25
469.89999 -524.29999 1676 inf
455.29999 -516.5 1655.6 inf
446.70001 -515.5 1656.7 inf
446.20001 -523.79999 1688.1 inf
433.10001 -517.40002 1671.8 inf
424.70001 -516.5 1672.9 1.6240714e+35
411.60001 -509.79999 1655.3 inf
405.29999 -511.39999 1664.5 inf
397.5 -511 1667.2 inf
396.20001 -519.29999 1698.3 inf
382.39999 -511.10001 1674.9 inf
381.89999 -520.79999 1710.5 inf
362.29999 -504.20001 1659.3 inf
364.89999 -518.59998 1710.3 8.582438e+20
353 -512.5 1693.5 7.0460695e-09
334.60001 -496.29999 1643.1 8.2999211e-38
334.89999 -507.89999 1684.9 44.533363
325.5 -505.10001 1678.5 8.9499374e+20
318.79999 -506.39999 1685.9 inf
314.39999 -511.39999 1705.6 8.0531155e-09
298.89999 -498.20001 1664.2 34.650398
289.60001 -494.79999 1655.5 2132090.5
286.60001 -502.5 1684.1 1.9991472e+35
280.10001 -504.29999 1692.7 5.3847051e+25
270 -499.39999 1678.7 inf
263.20001 -500.39999 1684.6 inf
259.20001 -507.20001 1709.9 inf
250.3 -504.39999 1702.8 5.1448126e+25
247.10001 -513.29999 1735.3 inf
236.3 -506.29999 1713.8 inf
224.89999 -497.79999 1686.7 inf
217.2 -497 1686.1 inf
213.5 -505.5 1717.3 2.8351945e+35
203.5 -499.39999 1698.2 inf
196.39999 -500.20001 1702.7 7.8561087e+20
190.89999 -505.29999 1722 7.1124687e+20
181 -498.79999 1701.3 inf
171.89999 -493.79999 1685.8 1.0383709e-13
169.2 -507.60001 1734.7 2.3418572e+11
158.60001 -497.89999 1702.8 2.1710547e+11
150.3 -495 1694.2 1.0063897e+21
142.3 -492.5 1687 1.2992677e+11
137.2 -500.60001 1716 1.0047872e-13
126.4 -487.5 1671.9 31.255039
122.1 -499.29999 1714 inf
113.4 -493.79999 1695.8 inf
105.2 -489.79999 1682.8 inf
99.300003 -496.70001 1707.6 inf
92 -496.5 1708 2.3143327e+35
83.800003 -491.70001 1692.1 3.3698426e+30
78 -501.5 1726.7 6.8410793e+25
69.300003 -492.60001 1696.6 inf
62.5 -496.70001 1711.2 inf
55.200001 -496.60001 1711.5 inf
47.099998 -488.70001 1684.5 inf
40.299999 -494.70001 1705.8 inf
32.599998 -489.5 1688.1 inf
25.700001 -496.39999 1712.3 inf
18.299999 -492.79999 1700 3.6561747e+25
10.9 -489.29999 1687.8 7.1119343e+15
3.7 -499.39999 1723 inf
-3.7 -496.89999 1714.2 inf
-10.8 -484 1669.6 inf
-18.4 -497.29999 1715.6 3.6880053e+30
-25.799999 -498.5 1719.6 31.243107
-33.099998 -496.29999 1711.5 3178120.5
-40.099998 -492.20001 1697 inf
-47.599998 -494.20001 1703.5 6.5936457e+25
-54.799999 -492.79999 1698.3 inf
-62 -492.70001 1697.5 3.5307773e+30
-69.099998 -491.29999 1691.9 1.5697645e+11
-77.5 -498.5 1716.2 9.7269091e+15
-85.099998 -499.5 1719 inf
-90.699997 -489.5 1683.7 inf
-97.800003 -488.79999 1680.4 3.6898622e+30
-107.6 -500.89999 1721.5 inf
-114.2 -497.5 1708.7 2.8327542e+35
-121.9 -498.79999 1711.9 6.8363643e+25
-129.2 -498.20001 1709 3.5282941e+30
-136.10001 -496.5 1701.9 0.00058761623
-144.5 -500.20001 1713.3 5.3922562e+20
-150.60001 -496 1697.7 2.584368e-23
-158.89999 -498.79999 1705.7 1.2563266e+11
-164 -492.10001 1681.3 0
-171.39999 -492.29999 1680.5 0
-180.3 -496.79999 1694.3 0
-190.89999 -505.29999 1722 0
-196.5 -500.39999 1703.6 0
-204.3 -501.5 1705.2 0
-213.60001 -505.79999 1718.2 0
-217.5 -497.60001 1688.1 0
-223.2 -494 1674 0
-239 -512.09998 1733.6 0
-239.3 -497.10001 1680.2 0
-251.5 -506.70001 1710.6 0
-252.8 -494.5 1667.1 0
-271.20001 -515.70001 1736.5 0
-279.89999 -517.59998 1740.3 0
-282.20001 -508 1705.4 0
-286.89999 -503.10001 1686.1 0.87440002
-298.79999 -510.70001 1708.9 0.86229998
-300.60001 -500.89999 1673.4 0.85970002
-318.20001 -517.59998 1726.3 0.85600001
-317.79999 -504.79999 1680.4 0.83719999
-327.89999 -508.79999 1690.9 0.83029997
-334.79999 -507.89999 1684.6 0.81330001
-342.10001 -507.39999 1680.1 0.7895
