# .PCD v0.7 - Point Cloud Data file format
VERSION 0.7
FIELDS x y z intensity
SIZE 4 4 4 4
TYPE F F F F
COUNT 1 1 1 1
WIDTH 1426
HEIGHT 1
VIEWPOINT 0 0 0 1 0 0 0
POINTS 1426
DATA ascii
223835.94 264532.03 1988849.2 inf
216173.05 265123.06 1994940.6 inf
208241.8 265409.38 1998680.1 inf
200235.16 265634.38 2001991.4 inf
192351.95 266017.59 2006496.9 1847095.2
184243.36 266077.34 2008472.2 inf
175880.47 265789.44 2007694.5 0
167660.55 265743.38 2008636.4 0
159652.73 266052.75 2012177.8 0
151545.31 266196.88 2014402.4 0
143276.56 266059.38 2014441.4 0
135019.53 265918.38 2014375 0
126692.97 265585.56 2012778.5 0
118301.17 265107.41 2010014.9 inf
109807.81 264241.81 2004254.2 1.1527565e-13
100274.22 260150.78 1974039.1 0
89014.062 250396.48 1900757.8 0
77421.094 238447.27 1810398.5 0
67493.359 230224.22 1748005.1 0
59404.688 226826.56 1722420.8 0
52042.188 225173.83 1710235.9 inf
44752.344 223413.28 1696963.2 inf
37647.266 222370.7 1688935.1 inf
30796.484 222459.38 1689649.2 inf
23972.656 222352.73 1689025.8 inf
17063.281 221183.2 1680308.6 inf
10167.188 220019.14 1671609 inf
3372.6562 219616.02 1668615.2 2.7305214e+35
-3371.4844 219289.06 1666067.6 0
-10140.234 219224.61 1665496.5 0
-16918.75 219691.8 1668934.8 0
-23620.312 219585.55 1667863.6 0
-30143.359 218179.69 1656859.8 0
-36580.859 216420.7 1643232.9 0
-43243.359 216066.02 1640346.9 0
-50156.25 217110.16 1648123.5 inf
-57027.734 217933.59 1654140.2 9.179237e-38
-63899.609 218453.91 1657723 0
-70938.672 219401.95 1664413.6 0
-77724.609 219681.64 1665828.9 0
-84044.141 218641.02 1657086 0
-90662.891 218262.89 1653334.8 0
-97960.547 219524.22 1662045.4 inf
-105369.53 220958.59 1672143 inf
-112709.77 222026.17 1679458.2 inf
-120322.27 223439.84 1689331.6 inf
-128019.92 224900.78 1699563.6 inf
-135514.06 225843.75 1705936 1.2537252e+16
-143384.77 227215.23 1715464.1 inf
-151807.03 229379.69 1730721.1 4.1767385e+25
-160014.45 231091.8 1742533.2 0
-168590.23 233008.2 1756118 0
-179308.2 237519.92 1789348 0
-193395.31 245971.48 1852125.4 0
-212000 259308.2 1951425 0
-233219.14 275026.97 2068200 0
-250973.05 285993.38 2148719.2 0
-262959.75 289741.81 2174773.8 inf
-272577.34 290507.03 2178514 1.8174841e-42
-282266.41 291256.25 2182179 0
-292264.47 292267.19 2187643.8 0
-302415.62 293394.12 2193725 0
-311986.72 293955.88 2195394.2 0
-320673.81 293659.38 2190554.2 0
-329594.12 293530.09 2186934.5 inf
-339739.44 294461.31 2191228 inf
-350443.38 295857.81 2198942.5 inf
-360705.06 296830.88 2203398 inf
-370660.94 297496.88 2205437.5 inf
-380359.38 297939.47 2205691 3.5228086e-23
-389379.69 297838.28 2201810.2 28.176579
-398030.47 297446.5 2195684 inf
-407190.25 297441.03 2192311 0
-417199.22 298050.78 2193420.8 0
-427583.19 298892.59 2196257.5 0
-437891 299642.97 2198337 0
-447849.22 300151.94 2198366 0
-457542.97 300469.94 2196777.8 0
-467607.44 300992.19 2196674.2 0
-478279.31 301866.81 2199145.8 inf
-489170.31 302850.41 2202279.2 inf
-499553.5 303514.06 2202879.8 0
-509636.72 303972.66 2201827 0
-520644.12 304941 2204391 0
-531889.44 306023.44 2207741 0
-541879.31 306352.34 2205579.2 0
-551523.06 306460.94 2201665.5 inf
-562327.75 307207.03 2202122 inf
-574195.69 308508.19 2206427.2 inf
-586169.12 309817.56 2210752.8 inf
-597362.5 310671.09 2211765.5 inf
-607623.06 311022.66 2209005.8 1.4026998e-42
-617939.44 311403.12 2206162 0
-629337.12 312319.53 2206903.2 inf
-641517.19 313599.62 2210082 0
-653218 314612.12 2211277.8 0
-663666 314980.47 2207909 0
-673947.25 315218.75 2203642.5 0
-685951.19 316223.44 2204701.5 0
-699000.38 317718.75 2208883.5 0
-709978.88 318314.06 2206271 0
-718028.94 317603.91 2194292.2 inf
-726689.44 317121.88 2183954 inf
-738419.12 317967.97 2182761.2 0
-751021.88 319202.34 2183969.2 0
-764230.88 320624.62 2186350 0
-779453.12 322801.16 2194023.5 0
-793079.31 324299.62 2196928.5 0
-803239.06 324379.31 2189708.5 inf
-813116.44 324335.53 2181411.2 inf
-823868.38 324631.66 2175363 inf
-835999.62 325447.66 2172604 inf
-850458.19 327140.62 2175500 5.3866162e+25
-866785.56 329503.5 2182669.2 34.564369
-882815.25 332182.44 2192816 0
-890296.12 333549.22 2198569.5 inf
674640.62 244942.19 1666014.9 0
670644.5 244546.48 1665855.5 0
661918 243833.2 1666859 0
652284 243120.31 1668580.9 0
641344.94 241895.7 1666560.5 0
627903.88 239694.53 1657489 0
615459.75 237854.3 1650802 0
609038.69 238334.38 1660217.2 inf
603359.38 239069.14 1671132 inf
592231.62 237637.5 1666701.6 0
580896.5 236114.84 1661649.6 0
572276.19 235637.89 1663898 0
564440.62 235462.11 1668302 0
558687.12 236169.14 1678994.1 0
553484 237114.06 1691149.2 inf
544317.19 236354.3 1690884.4 inf
531163.25 233860.94 1677866.4 inf
517794.53 231264.45 1663643 inf
506995.72 229765.23 1657152.8 inf
499295.31 229618.75 1660534.8 inf
493430.84 230289.45 1669939.5 0.00035418553
486623.44 230497.27 1675978.1 inf
477433.97 229560.94 1673616.4 0
467780.88 228399.22 1669476.1 0
459587.09 227953.91 1670291 0
452637.5 228117.58 1675447.2 0
445525 228176.17 1679812.5 0
437124.22 227576.56 1679139.9 0
428673.44 226947.66 1678236.8 0
420996.47 226681.25 1680064.5 inf
413179.28 226335.55 1681088.2 50.595863
405605.84 226144.53 1683044.9 0
398116.03 225973.44 1685077 0
389814.06 225312.89 1683477 0
381492.56 224616.41 1681668.4 0
373220.69 223905.08 1679647.6 0
364471.88 222892.58 1675167.2 inf
356883.19 222595.31 1676036 inf
350775.78 223195.31 1683645.2 inf
343876.56 223289.06 1687237.5 inf
335605.84 222505.86 1683989.5 inf
327096.88 221541.8 1679273.9 inf
319351.94 221070.7 1678312.9 1847095.2
312521.88 221214.45 1682033.2 inf
306138.69 221690.23 1688216.8 0
299464.06 221946.88 1692651.5 0
291393.38 221130.86 1688779.8 0
283085.16 220161.33 1683598.5 0
276045.31 220150.78 1685696.1 0
268836.72 219941.41 1686246.9 0
261301.17 219494.92 1684914 0
254717.58 219862.5 1689752.4 inf
249021.09 221025.78 1700719.5 1.1527565e-13
246587.89 225362.5 1736382.8 0
250171.88 235615.62 1818064.9 0
254985.55 247417.19 1911772.6 0
254026.56 254100 1965569.5 0
247658.98 255797.66 1980542.2 0
239891.8 256183.2 1985450.4 inf
232305.47 256765.62 1992021.5 inf
224762.89 257442.19 1999212.9 inf
216912.89 257811.72 2003769.5 inf
208732.81 257825.39 2005434.4 inf
200728.12 258089.84 2009053.9 inf
192936.72 258617.58 2014713.6 inf
184821.09 258694.92 2016821.9 2.7305214e+35
176374.22 258326.95 2015359.4 0
168019.92 258118.36 2014950.4 0
159869.92 258237.11 2016937.5 0
151747.27 258388.28 2019193 0
143546.48 258382.03 2020268 0
135280.08 258233.59 2020156.6 0
126936.72 257902.34 2018546.9 0
118569.14 257498.05 2016317.1 inf
110091.8 256737.11 2011174.6 9.179237e-38
100800.39 253554.69 1987011 0
90089.062 245794.92 1926971.5 0
78768.359 235139.84 1843906.6 0
68505.078 226342.19 1774821.5 0
59982.812 221957.42 1740237.9 0
52472.656 220101.56 1725956.6 inf
45109.766 218148.44 1711099.2 inf
37824.609 216301.56 1696791 inf
30812.891 215623.44 1691477 inf
23953.125 215441.41 1690153.9 inf
17079.688 214819.14 1685550.8 1.2537252e+16
10210.156 214227.34 1681190.2 inf
3396.875 213996.48 1679481.6 4.1767385e+25
-3385.5469 213600.39 1676309 0
-10170.703 213298.44 1673706.2 0
-16937.109 213336.33 1673665.2 0
-23622.656 212893.75 1669887.9 0
-30141.406 211419.53 1658026.1 0
-36582.812 209728.12 1644455.5 0
-43254.688 209457.42 1642030.1 0
-50206.641 210665.62 1651142.1 inf
-57215.625 211929.69 1660752 1.8174841e-42
-64269.141 212971.09 1668676.1 0
-71272.656 213765.23 1674375.4 0
-77818.359 213284.77 1669903.9 0
-83997.656 211796.48 1657776.5 0
-90479.297 211107.42 1651927.8 0
-97495.312 211755.47 1656209 inf
-104742.58 212855.47 1663846.9 inf
-112087.89 213982.42 1671734.8 inf
-119725.39 215457.42 1682475.8 inf
-127685.16 217313.28 1696393.4 inf
-135758.98 219164.06 1710297.6 3.5228086e-23
-143814.45 220842.58 1722493 28.176579
-151751.17 222243.36 1732148 inf
-159944.53 223803.12 1743188.6 0
-169415.62 226840.23 1766025 0
-181001.17 232344.14 1807970.2 0
-195628.91 241142.58 1875404.2 0
-214230.08 253998.44 1974246.5 0
-234198.44 267759.75 2079643.8 0
-250125.78 276306.25 2144038.8 0
-261120.7 278855.88 2161734.8 inf
-270708.97 279621.09 2165627 inf
-280710.16 280732.44 2172215.5 0
-290814.44 281883.59 2178990.2 0
-300640.25 282723.06 2183136 0
-309851.56 282970.69 2182578 0
-318505.06 282684.38 2177878 0
-327531.62 282696.88 2175438 inf
-337559.38 283567.19 2179466 inf
-347913.28 284698.03 2185387 inf
-357828.5 285417.97 2188112 inf
-367532.03 285920.69 2189075.5 inf
-377278.91 286432.81 2190028.5 1.4026998e-42
-386677.34 286659 2188764 0
-395613.28 286530.88 2184681.2 inf
-404682.44 286503.91 2181196.5 0
-414431.62 286956.25 2181223 0
-424901.19 287874.22 2184743.8 0
-435541 288871.09 2188836.8 0
-445442.19 289362.5 2188972.2 0
-454741.41 289439.06 2185801.5 0
-464542.56 289812.5 2184745 0
-475109.38 290648.06 2187045 inf
-485877.34 291582.44 2189943.2 inf
-496228.12 292236.72 2190691.5 0
-506327.75 292700.38 2190031.8 0
-516976.56 293457.41 2191423 0
-527829.69 294325 2193399.2 0
-538215.62 294900.38 2193084.5 0
-548442.19 295360.16 2191847.2 inf
-558852.75 295907.41 2191117.2 inf
-569747.62 296689.44 2191950.5 inf
-581492.19 297876.19 2195657.8 inf
-593573.81 299190.62 2200266.8 5.3866162e+25
-604596.5 299945.31 2200646 34.564369
-614471.12 300121.88 2196516.5 0
-622284.38 299417.19 2185180 inf
-625961.75 296940.25 2159693.8 0
-632007.44 295475 2141994.5 0
-647445.31 298063.28 2155929.2 0
-666221.5 302066.41 2180737 0
-683255.06 305269.12 2198692.5 0
-699025.75 307895.69 2211779.2 0
-709614.88 308294.91 2208218.2 0
-714104.31 306102.75 2185395.2 -0
-719412.12 304273.81 2165009.5 inf
-729044.5 304289.06 2157909.5 0
-740280.5 304955.88 2155553 0
-754201.94 306630.84 2160392.2 0
-772375.75 309964.06 2176884.8 0
-788409.75 312426.16 2186961.2 0
-798643.75 312569.94 2180277.2 inf
-807382 312128.5 2169134.5 inf
-817197.62 312108.22 2160855.5 inf
-828990.62 312803.12 2157504 inf
-844268.75 314766.78 2162771 2.237045e+30
-862078.88 317634.75 2173986.2 inf
-878534 320429.31 2185461 0
-885771.12 321685.94 2190705.5 inf
677656.25 238233.59 1675977.4 0
673248.81 237701.17 1674803.1 0
663748.06 236733.59 1673911.8 0
653961.31 235998.44 1675330.5 0
643287.88 234916.8 1674019.5 0
629376.19 232612.11 1663678.5 0
615628.88 230354.69 1653464.5 0
607510.94 230199.61 1658191.8 inf
600832.44 230528.12 1666326.6 50.595863
590224.62 229312.89 1663318.8 0
579662.5 228128.52 1660357 0
571943 228041.8 1665231.6 0
566441 228833.2 1676639.5 0
562855.06 230432.81 1693868.8 0
558055.06 231557.81 1707392.2 inf
549239.06 230996.88 1708511.4 inf
536090.62 228577.34 1695620.8 inf
521196.09 225396.48 1676636.4 inf
509446.88 223516.02 1667311.8 inf
501510.56 223247.66 1669981.6 inf
494518.34 223418.75 1675593.8 1847095.2
486754.28 223244.92 1678458.6 inf
478125.38 222635.94 1678189.1 0
469557.44 222028.12 1677932.8 0
461536.72 221669.53 1679396.9 0
454434.75 221749.22 1684155.1 0
447311.72 221799.22 1688591.8 0
438640.62 221087.89 1686967.6 0
429819.53 220322.27 1684687.9 0
421487.12 219769.14 1683893.4 inf
412875.78 219023.83 1681702.8 1.1527565e-13
404883.97 218581.64 1681903.5 0
397056.62 218203.52 1682418.4 0
388462.5 217403.12 1679485.9 0
380580.88 216995.31 1679601.5 0
373656.62 217079.69 1683660.1 0
366162.12 216813.28 1684940.6 inf
358639.06 216584.38 1686136 inf
351704.31 216725 1689874.6 inf
344235.56 216499.61 1690793.8 inf
335916 215696.48 1687339.5 inf
327407.81 214732.03 1682650.4 inf
319663.28 214258.59 1681743 inf
312760.56 214351.95 1685036.8 2.7305214e+35
306046.5 214606.64 1689350.8 0
299294.53 214829.69 1693438.6 0
291497.25 214227.73 1691134 0
282942.56 213067.97 1684323.9 0
275452.75 212708.98 1683730.9 0
268550.38 212742.19 1686284.8 0
261405.47 212595.7 1687300.4 0
254531.64 212698.44 1690069.9 inf
248479.69 213526.17 1698637.9 9.179237e-38
246255.47 217914.84 1735865.6 0
250476.56 228432.42 1822289.9 0
255776.95 240316.41 1919700.4 0
254633.98 246599.61 1972083.6 0
247735.94 247731.25 1982990.6 0
240007.42 248182.81 1988532 inf
233147.27 249542.58 2001528.5 inf
226168.36 250827.73 2013820.2 inf
218240.62 251127.73 2017915.2 inf
209721.09 250796.88 2016772.2 inf
201470.31 250810.16 2018353.5 1.2537252e+16
193521.48 251172.66 2022734 inf
185321.48 251174.61 2024242.2 4.1767385e+25
176804.69 250741.41 2022197.6 0
168233.2 250232.81 2019299.6 0
159777.34 249896.48 2017561.8 0
151553.12 249894.14 2018561.4 0
143466.02 250065.62 2021100 0
135313.28 250109.38 2022582 0
127083.98 250024.22 2022916.8 0
118841.02 249905.47 2022908.2 inf
110425 249330.86 2019170.8 1.8174841e-42
101310.16 246803.12 1999584.4 0
91049.609 240683.98 1950798.9 0
80060.156 231473.44 1876642.2 0
69525.391 222238.28 1801737.1 0
60384.375 216137.89 1751912.9 0
52546.094 213451.56 1730069.9 inf
45234.375 211960.94 1718406.2 inf
37994.531 210334.77 1705598.9 inf
30868.75 208943.75 1694277 inf
23910.938 208283.2 1688839.5 inf
17066.797 208357.81 1689778.5 3.5228086e-23
10252.734 208719.53 1693195.2 28.176579
3419.5312 208877.73 1694723 inf
-3410.9375 208577.73 1692284.8 0
-10205.859 207900 1686548.9 0
-16970.703 207247.66 1680937.5 0
-23671.484 206528.91 1674873 0
-30187.891 205020.31 1662356.2 0
-36607.812 203214.06 1647367.6 0
-43244.922 202780.86 1643548.5 0
-50132.422 203721.48 1650787.5 inf
-57130.859 204912.11 1659947.6 inf
-64231.641 206133.2 1669350.8 0
-71160.938 206753.91 1673875 0
-77610.547 205992.97 1667213.2 0
-83964.453 204935.94 1658241.8 0
-90721.875 204910.16 1657646.5 0
-97762.109 205568.36 1662418.8 inf
-104873.83 206298.05 1667544.9 inf
-112148.83 207215.23 1674121.1 inf
-119826.17 208700.78 1685317.1 inf
-128083.59 210978.52 1702930.1 inf
-136630.47 213523.05 1722661 1.4026998e-42
-144773.44 215275.78 1735857.4 0
-152401.17 216109.77 1741503.5 inf
-160607.42 217556.25 1752016.8 0
-170414.06 220945.7 1778115.6 0
-182186.33 226500.39 1821665.6 0
-197226.95 235411.33 1892423 0
-216124.61 248141.41 1993827.4 0
-235064.06 260304.69 2090046.1 0
-249393.75 266801.19 2140241 0
-259660.94 268487.88 2151765.2 inf
-269139.44 269166.81 2155150 inf
-279033.59 270208.59 2161319.5 0
-288876.94 271147.25 2166586.8 0
-298314.84 271659.78 2168372 0
-307338.28 271771.5 2166910.2 0
-316216 271732.03 2164225.5 0
-325466.41 271998.44 2163854 inf
-335176.94 272653.12 2166356.2 inf
-344996.5 273368.75 2169267.2 inf
-354753.5 273983.59 2171415.2 inf
-364560.56 274597.66 2173483.2 5.3866162e+25
-374550 275318.75 2176286 34.564369
-384381.25 275898.06 2177905.8 0
-393655.06 276059.38 2176095.2 inf
-402573.81 275975.38 2172137 0
-411721.09 276050.41 2169267.2 0
-421724.59 276670.31 2170641.5 0
-432419.12 277707.81 2175325 0
-442743.38 278475.41 2177911.2 0
-452413.28 278798.81 2176914 0
-462162.09 279159 2175935.5 0
-472242.56 279723.44 2176261 -0
-482380.47 280309.38 2176600.5 inf
-492590.62 280894.53 2176999.2 0
-503108.59 281607.44 2178470.8 0
-513802.34 282400 2180397.8 0
-524234 283038.28 2180870.8 0
-534643.75 283635.56 2180877.8 0
-545362.88 284371.09 2181908.5 inf
-555864.88 284976.19 2181863 inf
-566135.94 285446.88 2180570 inf
-577145.69 286269.94 2181736.2 inf
-589029.31 287498.44 2185877.2 2.237045e+30
-600346.12 288419.12 2187647.2 inf
-610528.12 288755.88 2184938 0
-610723.44 284715.25 2148015.2 inf
-591098.81 272037.88 2043623.9 0
-580995.31 263518.75 1971354.2 0
-610703.12 272378.12 2034137.5 0
-652168.38 286332.44 2136368 0
-678296.88 293502.34 2185259.8 0
-696569.12 297182.44 2206589 0
-708132.81 298008.19 2206392.5 0
-711007.44 295179.31 2178805.8 inf
-713580.06 292248.44 2150312 inf
-721060.56 291384.75 2137033.5 0
-732668.75 292167.19 2136012 0
-748986.31 294754.69 2148152.2 0
-768298.44 298511.31 2168284.5 0
-784129.69 300892.56 2177997.8 0
-794437.88 301078.12 2171720.2 inf
-803065.25 300592.97 2160530.8 inf
-812719.5 300494.94 2152011.8 inf
-824821.5 301291 2149675.8 inf
-840511.75 303379.31 2156221.5 inf
-858224.62 306167.97 2167418.2 1.4219411e+16
-873343 308442.97 2175788.8 8.6960259e+10
-879525.75 309306.25 2178516.5 4.3273989e+30
679065.62 230925 1681884.4 0
674727.75 230433.59 1680887.5 0
665253.88 229513.67 1680083.2 0
655468.38 228821.48 1681546.9 0
644853.88 227804.3 1680414.5 0
630868 225530.86 1669890.2 0
616279.31 223012.89 1657369.1 0
606278.88 222158.59 1656892.2 inf
598980.5 222257.81 1663366.8 1.1527565e-13
589797.62 221621.09 1664340.6 0
579987.12 220750 1663426.5 0
572500.75 220760.94 1669055.9 0
567612.12 221793.75 1682291.4 0
563271.12 223080.08 1697159.8 0
557091.81 223647.27 1706504.2 inf
548584.75 223250.39 1708635.5 inf
536680.06 221410.16 1699608.6 inf
522944.53 218783.59 1684393.8 inf
512964.06 217701.95 1681050 inf
506049.62 217876.17 1687206.6 inf
497510.16 217358.98 1687648.9 inf
487600.41 216257.03 1683319.9 2.7305214e+35
478537.91 215504.69 1681669.1 0
470360.94 215117.97 1682785.5 0
462528.5 214878.91 1684960.1 0
455796.5 215150.78 1691200.4 0
449257.03 215481.64 1697972.2 0
440925 214944.92 1697755.9 0
431012.12 213657.03 1691118.4 0
420348.44 211971.48 1680991 inf
410830.47 210806.64 1675197.2 9.179237e-38
403837.12 210879.69 1679463.6 0
396888.28 210942.19 1683540.2 0
388148.06 210066.41 1679861.8 0
379816.81 209443.75 1677971.5 0
373380.47 209849.61 1684305.9 0
367006.25 210254.69 1690713.6 inf
359252.75 209875.39 1690662.1 inf
350773.81 209073.44 1686984 inf
342733.59 208497.27 1685190.2 inf
335260.56 208214.84 1685906.6 inf
327709.75 207867.19 1686034.4 1.2537252e+16
320382.44 207681.64 1687291 inf
313242.56 207612.89 1689275.4 4.1767385e+25
305782.03 207342.58 1689436.8 0
298576.94 207253.91 1691018 0
291170.69 206958.2 1690992.6 0
282997.66 206085.55 1686296.1 0
275516.41 205736.33 1685790.2 0
269012.88 206096.88 1690999.2 0
262251.94 206259.38 1694459.4 0
255062.5 206103.91 1695137.5 inf
248516.02 206519.14 1700435.5 1.8174841e-42
246013.67 210562.5 1735747.6 0
250160.55 220704.3 1821721.9 0
255669.53 232391.41 1920785.5 0
254655.86 238555.08 1974070.8 0
247672.27 239548.44 1984296.1 0
240234.77 240289.84 1992444.1 inf
234076.17 242353.52 2011612.5 inf
227496.88 244048.05 2027566.4 inf
219374.61 244160.55 2030138.2 inf
210466.02 243442.19 2025677.4 inf
201920.7 243135.16 2024617.6 3.5228086e-23
193779.69 243272.27 2027241.4 28.176579
185558.98 243273.05 2028769.1 inf
177090.62 242925.39 2027369.1 0
168390.23 242242.97 2022928.1 0
159696.09 241558.98 2018250.8 0
151371.48 241392.58 2017926.1 0
143326.95 241620.31 2020964.5 0
135234.77 241773.83 2023305.9 0
127058.2 241806.64 2024502 0
118887.89 241853.91 2025779.2 inf
110625.39 241656.25 2025116 inf
101817.97 239999.61 2012274.6 0
91969.141 235271.88 1973462.5 0
81291.797 227433.59 1908234.8 0
70708.203 218535.94 1833814.5 0
61086.328 211205.86 1772160.1 0
52701.562 206884.38 1735568.8 inf
45198.438 204968.36 1719488.6 inf
38020.703 203700 1709156.2 inf
30880.078 201993.36 1694950 inf
23834.766 200694.92 1683925 inf
16993.75 201077.34 1687223.9 1.4026998e-42
10241.016 202386.72 1698613.6 0
3425.3906 203145.7 1705281.6 inf
-3418.3594 202917.19 1703320.8 0
-10218.359 201926.17 1694783.6 0
-17002.734 200987.5 1686764.5 0
-23740.234 200324.61 1681134.4 0
-30273.438 198904.3 1669020.8 0
-36700 197080.08 1653408.2 0
-43357.422 196644.53 1649494.1 0
-50234.766 197459.38 1656051.5 inf
-57102.344 198169.92 1661480.9 inf
-64021.484 198789.45 1665974.6 0
-70944.531 199341.02 1670125.8 0
-77537.109 199003.52 1666969.5 0
-84055.078 198394.53 1661371.1 0
-91077.734 198907.03 1665153.1 0
-98335.938 199959.77 1673412.5 inf
-105409.77 200559.38 1677581.6 inf
-112661.33 201318.36 1683069.5 inf
-120455.47 202886.33 1695499.6 inf
-128712.11 205065.23 1712862.1 5.3866162e+25
-137126.17 207313.28 1730545.4 34.564369
-145282.42 208987.11 1743499.6 0
-153192.97 210116.41 1752064 inf
-161578.12 211711.72 1764375.4 0
-171150.39 214659.38 1787722.6 0
-182718.75 219717.19 1828709.8 0
-198121.09 228704.69 1902553.9 0
-217230.08 241283.2 2006049.6 0
-235222.27 252051.56 2093967.6 0
-248337.11 257026.56 2133425.8 0
-258248.05 258289.45 2142026.5 -0
-267650.38 258921.09 2145267.2 inf
-277134 259598.44 2148687.5 0
-286475 260100.78 2150603.5 0
-295610.56 260378.91 2150676.5 0
-304657.03 260555.47 2149888 0
-313839.84 260829.3 2149849.5 0
-323228.5 261268.75 2151020.2 inf
-332589.47 261685.55 2151781.8 inf
-341977.75 262096.88 2152374.2 inf
-351658.19 262697.66 2154502 inf
-361595.72 263453.12 2157865.8 2.237045e+30
-371621.47 264236.72 2161365.2 inf
-381494.53 264877.72 2163617.5 0
-390955.88 265203.12 2163236.2 inf
-399800.38 265114.84 2159325 0
-408476.94 264918.34 2154363.8 0
-418121.88 265321.09 2154250.5 0
-428861.34 266389.44 2159538 0
-439664.84 267469.12 2164845 0
-449957.03 268203.12 2167235.2 0
-459853.5 268677.34 2167320 0
-469440.62 268965.62 2165651.2 inf
-478922.66 269183.19 2163283.5 inf
-488884.75 269639.84 2162872.8 0
-499444.16 270402.72 2164870 0
-509958.19 271128.91 2166370.2 0
-520108.19 271634.75 2165975.5 0
-530589.88 272275.78 2166603.5 0
-541728.88 273229.69 2169664 inf
-552405.88 273938.28 2170650.8 inf
-562253.5 274219.94 2168017.2 inf
-572486.31 274672.66 2166529 inf
-583447.25 275462.12 2167571.8 inf
-594299.62 276176.94 2167964.8 1.4219411e+16
-604893 276735.53 2167102.8 8.6960259e+10
-600363.25 270673.81 2114604.2 4.3273989e+30
-565093.75 251182.03 1957412.1 0
-543955.06 237860.94 1848007.4 0
-583009 250831.25 1942958.2 0
-639096.5 271202.75 2095375 0
-669070.31 280082.81 2158071.5 0
-685610.56 283052.75 2174397 0
-696833.19 283793.75 2173601.5 0
-701669.5 281852.34 2152559.8 inf
-706427.75 279865.62 2131259.5 inf
-714705.06 279336.31 2120779 0
-727814.44 280690.22 2124365.8 0
-745748.81 283871.09 2141546 0
-763298.81 286905.06 2157071.5 0
-776513.25 288259 2159611.8 0
-787462.88 288680.88 2155299.2 inf
-798792.19 289187.88 2151741.8 inf
-810989.44 289998.44 2150228.5 inf
-824282 291204.69 2151196.5 inf
-839204.31 292979.69 2155902.8 inf
-854946.5 295016.81 2162215.5 0
-867770.31 296447.66 2164999.2 7.896777e-14
-872780.5 296888.28 2164896 inf
679162.5 223129.69 1684441.4 0
675057.81 222736.72 1684021.1 0
665685.56 221890.62 1683437.9 0
655403.5 221065.23 1683598.9 0
644758.62 220076.17 1682414.9 0
632230.88 218368.75 1675810.1 0
619116.81 216425 1667253.5 0
608458.62 215357.03 1664948.5 inf
599698.06 214961.72 1667439.9 9.179237e-38
590513.69 214376.95 1668489 0
581472.25 213810.16 1669812.5 0
574033.19 213839.06 1675590.6 0
567548.81 214255.86 1684021.9 0
560691.81 214540.23 1691261.8 0
552936.75 214467.19 1695688.6 inf
544320.31 214040.23 1697314 inf
534315.62 213003.91 1694237.5 inf
523905.88 211771.48 1689661.4 inf
516059.38 211603.52 1693262.9 inf
509310.56 211882.03 1700078.1 1.2537252e+16
500034 211083.59 1698162.9 inf
489371.5 209684.38 1691365.6 4.1767385e+25
480093.38 208858.59 1689072.6 0
471991 208514.45 1690532 0
463669.53 208073.05 1690944.5 0
455814.06 207868.36 1693039.5 0
449005.88 208116.8 1698923 0
441597.28 208035.55 1702287.1 0
431755.47 206769.53 1695800 0
419995.72 204555.47 1681268.8 inf
409887.09 203139.84 1673094.9 1.8174841e-42
403302.34 203449.22 1679053.9 0
397384.38 204046.09 1687525 0
389413.69 203573.44 1687139.5 0
380375 202582.42 1682014.5 0
372369.12 202167.97 1681271.5 0
365417.59 202283.98 1685052.8 inf
358163.28 202167.58 1687253.5 inf
350301.56 201680.47 1686468 inf
342831.25 201434.38 1687475.4 inf
335834.75 201472.66 1690568.8 inf
328335.16 201206.64 1690926.1 3.5228086e-23
320725 200878.52 1690737.1 28.176579
313526.56 200775 1692527.4 inf
306178.91 200561.72 1693336.4 0
298880.47 200404.69 1694384 0
291651.56 200264.06 1695514.5 0
284042.56 199831.64 1694268 0
276832.03 199703.12 1695509 0
270405.47 200143.75 1701448.9 0
263755.88 200410.16 1705850.8 0
256251.95 200032.03 1704577.8 inf
248862.5 199785.94 1704218 inf
245272.27 202812.11 1731836.4 0
248540.23 211873.83 1811386 0
253909.38 223037.89 1909290.6 0
253339.06 229344.14 1965687.1 0
247085.55 230921.09 1981527.4 0
240500.78 232418.36 1996621.1 inf
234800.78 234870.7 2019680.1 inf
228083.98 236396.88 2034517.2 inf
219607.42 236154.3 2034009.8 inf
210530.08 235282.42 2028107.4 inf
201994.53 234981.64 2027164.9 1.4026998e-42
193851.17 235102.34 2029787.9 0
185676.95 235179.69 2031969.5 inf
177300.78 234981.25 2031685.1 0
168601.17 234329.69 2027285.1 0
159899.22 233663.67 2022644.9 0
151622.66 233575 2023061.8 0
143545.31 233749.61 2025742.6 0
135308.98 233682.42 2026157.8 0
126987.5 233476.17 2025210.5 0
118758.2 233417.19 2025512.1 inf
110621.48 233516.41 2027300.4 inf
102161.33 232750.78 2021662.1 0
92709.766 229236.72 1991962.5 0
82319.141 222618.36 1934950 0
71862.891 214651.56 1866008.6 0
62052.344 207147.66 1800907.4 0
53199.219 201515.62 1751907.4 inf
45350.391 198592.97 1726538.2 inf
38107.812 197282.42 1715327.4 inf
30970.312 195652.73 1701286.8 inf
23864.844 193842.97 1685430.5 5.3866162e+25
16951.562 193511.72 1682241.4 34.564369
10187.5 194730.47 1692721.5 0
3410.9375 195857.42 1702654.2 inf
-3397.6562 195718.75 1701500.4 0
-10187.109 194648.83 1692127 0
-16983.203 193889.45 1685503.1 0
-23739.062 193520.31 1682271.1 0
-30276.953 192242.58 1670957.4 0
-36689.453 190405.86 1654590.2 0
-43362.5 189999.61 1650709 0
-50319.922 191044.14 1659630.9 -0
-57176.562 191725.78 1665310.1 inf
-63959.766 191878.91 1666136.4 0
-70898.438 192378.52 1669964.5 0
-77632.422 192452.73 1670111.8 0
-84195.703 192009.38 1665627.4 0
-91271.484 192585.94 1669990.6 0
-98531.25 193616.8 1678230.9 inf
-105372.27 193782.03 1678693.4 inf
-112542.58 194333.2 1682539 inf
-120640.23 196320.31 1699168.8 inf
-129081.64 198703.52 1719261 2.237045e+30
-137338.28 200605.08 1734898 inf
-145439.06 202107.03 1746876.5 0
-153663.67 203608.59 1758823.5 inf
-162371.09 205553.52 1774615.6 0
-172085.94 208502.34 1799151.1 0
-183856.25 213530.86 1841713.2 0
-199204.69 222142.58 1914880.1 0
-217499.22 233453.91 2010786.8 0
-234319.92 242641.02 2088159 0
-246739.45 246739.45 2121664.5 0
-256524.61 247878.12 2129562 inf
-265786.72 248426.17 2132207.5 inf
-274875 248777.34 2133066.8 0
-283901.94 249030.47 2133114.5 0
-293061.31 249367.19 2133906.8 0
-302376.19 249814.84 2135562 0
-311830.06 250358.2 2137908.2 0
-321245.69 250858.2 2139759 inf
-330373.06 251121.48 2139431.2 inf
-339408.22 251301.56 2138214.8 inf
-348722.66 251678.91 2138547.2 inf
-358334.78 252247.66 2140451.2 inf
-367998.06 252819.53 2142344.2 1.4219411e+16
-377662.5 253349.22 2143859 8.6960259e+10
-387312.12 253834.38 2144999.2 4.3273989e+30
-396388.69 253944.92 2142886 0
-405121.88 253828.12 2138696 0
-414784 254269.92 2139106.2 0
-425384 255274.61 2144117.5 0
-436012.12 256273.05 2148909 0
-446432.03 257110.16 2152273.8 0
-456515.62 257719.92 2153677 0
-465966.41 257953.12 2151780.8 inf
-475184.75 258041.8 2148542.2 inf
-485011.72 258442.19 2147866.5 0
-495344.12 259103.52 2149259.2 0
-505477.34 259650.39 2149502 0
-515487.88 260104.3 2148886.8 0
-526176.56 260865.23 2150766 0
-537520.31 261931.25 2155042.5 inf
-548117.56 262615.62 2156061.2 inf
-557737.5 262805.06 2152861.8 inf
-567691 263140.25 2150667.5 inf
-578030.5 263651.94 2149783.2 inf
-588229.69 264083.97 2148130 0
-598488.31 264532.81 2146454 7.896777e-14
-598377.75 260452.73 2109339.5 inf
-577418.75 247253.91 2001121.9 0
-566141 238273.83 1925645.2 0
-595472.25 247021.09 1988005.5 0
-636314.44 260758.2 2089169.9 0
-658753.12 266418.38 2127319.5 0
-671028.12 267651.56 2130657 0
-680580.44 267762.5 2125139.8 0
-688526.94 267166.03 2114313 inf
-697930.88 267109.75 2107835.5 inf
-708825 267639.44 2105737 0
-722489.06 269202.75 2111309 0
-739454.31 271984 2126056.8 0
-754683.62 274095.69 2135370.8 0
-766173.44 274789.44 2133421 0
-778005.06 275551.19 2131877.2 inf
-792510.56 277203.5 2137293 inf
-807880.06 279122.66 2144598.8 inf
-822277.75 280694.53 2148738 inf
-836334.75 282122.66 2151382 inf
-850587.12 283581.25 2154062 0
-862191 284549.22 2153956.8 7.5345451e-14
-866714.06 284810.94 2152727.2 3.9311386e+25
679732.81 215464.84 1688075.8 0
675791.44 215140.62 1688078.1 0
666525.75 214355.47 1687766.8 0
655817.56 213410.55 1686819.5 0
645181.62 212466.41 1685716.8 0
634427.75 211436.33 1683930.1 0
623481.62 210313.67 1681280.5 0
612779.69 209273.05 1678883.2 inf
602177.75 208257.03 1676349.6 1.8174841e-42
592153.5 207410.55 1675194.1 0
583619.12 207057.03 1678052.8 0
575418 206819.92 1681536.8 0
566559 206355.47 1682899.2 0
558259.38 206077.34 1685815.6 0
550120.31 205834.77 1688922.2 inf
541434 205385.16 1690219.9 inf
533486.75 205186.72 1693732 inf
526216.81 205231.25 1699210.5 inf
519037.91 205343.36 1704932 inf
511162.12 205178.91 1708131.2 3.5228086e-23
501279.28 204181.64 1704281.2 28.176579
490763.28 202907.81 1698058.2 inf
482171.5 202404.3 1698301.1 0
474776.19 202374.61 1702416.4 0
465793.34 201659.38 1700428.9 0
455650 200456.25 1694011.8 0
447071.88 199933.59 1693256.6 0
439869.53 199976.17 1697400 0
431541.41 199439.06 1696817.6 0
421434.38 198038.28 1688887.9 inf
411904.28 196921.88 1683076.6 inf
404835.56 196996.09 1687157.8 0
398757.44 197539.06 1695171.5 0
391195.31 197332.03 1696658.6 0
381542.97 196059.77 1688719.1 0
371504.69 194580.08 1678749.6 0
363318.75 194035.94 1676939.9 inf
357215.62 194552.34 1684644.5 inf
351595.31 195314.06 1694618 inf
345057.44 195604.3 1700149.2 inf
337208.59 195183.59 1699024.6 inf
328425 194201.56 1692885.5 1.4026998e-42
320090.22 193454.69 1688938.2 0
313012.88 193437.89 1691446.9 inf
306260.16 193612.11 1695526.5 0
299367.97 193711.72 1698839 0
292560.56 193851.95 1702550.4 0
285457.44 193787.89 1704416.8 0
278150.78 193624.22 1705115.6 0
271363.66 193839.84 1709034 0
264689.47 194107.42 1713477.4 0
256984.38 193590.62 1710921.9 inf
248893.75 192796.09 1705791.8 inf
244237.11 194839.45 1725778.9 0
246421.48 202674.61 1797294.9 0
251430.47 213116.8 1892305.9 0
251617.19 219804.69 1954285.5 0
246832.42 222588.28 1981619.5 0
241350.78 225030.47 2005617.6 inf
235614.06 227375 2028316.4 inf
228211.72 228201.56 2037254.8 inf
219325 227568.75 2033161.8 inf
210356.25 226844.53 2028332 5.3866162e+25
202100.39 226851.56 2030068.4 34.564369
194088.28 227111.72 2033995.8 0
185891.41 227175.78 2036029.2 inf
177473.05 226964.84 2035438.6 0
168835.94 226445.31 2031985.5 0
160324.22 226082.81 2029953.5 0
152217.97 226268.36 2032884 0
144130.08 226450 2035728.5 0
135704.3 226107.81 2033675.4 0
127147.66 225533.98 2029346.5 0
118760.55 225210.16 2027225.8 -0
110611.72 225310.55 2028964.9 inf
102324.61 225003.52 2027025.4 0
93153.516 222341.8 2003758.2 0
82976.562 216608.59 1952526.6 0
72614.062 209378.91 1887539.5 0
62778.906 202264.45 1823563.6 0
53775.391 196519.53 1772022.6 inf
45773.828 193383.2 1744097.6 inf
38454.297 192071.48 1732599.2 inf
31257.812 190507.03 1718630.1 inf
24063.672 188317.97 1698823.9 2.237045e+30
17025.391 186780.86 1684664.5 inf
10168.359 186842.97 1684866 0
3391.4062 187746.88 1692911 inf
-3382.0312 187845.7 1693866.8 0
-10168.359 187101.17 1687231.6 0
-16969.531 186713.28 1683771.9 0
-23705.859 186462.89 1681374.2 0
-30218.359 185144.14 1669189.5 0
-36599.609 183267.19 1651914.5 0
-43262.891 182855.47 1647865.2 0
-50314.844 184211.72 1659865.2 inf
-57309.375 185356.25 1669966.8 inf
-64100.781 185545.31 1671237.5 0
-70976.562 185812.89 1673054.6 0
-77744.141 185920.31 1673501.5 0
-84321.875 185538.67 1669511.8 0
-91229.688 185785.16 1670980.1 0
-98241.016 186316.41 1674945.4 inf
-104907.42 186159.77 1672737.5 inf
-112032.42 186643.75 1676230.1 inf
-120273.05 188847.27 1695194.9 inf
-129017.58 191641.8 1719632.8 inf
-137500.78 193809.38 1738429.8 1.4219411e+16
-145621.48 195275.78 1750677 8.6960259e+10
-153869.14 196728.52 1762646.9 4.3273989e+30
-162806.25 198862.89 1780754.8 0
-173083.98 202329.69 1810923 0
-185574.22 207943.75 1860447.2 0
-200779.69 216073.44 1932205.9 0
-217692.58 225509.77 2015032 0
-233176.17 232992.58 2080060.5 0
-245087.5 236476.17 2109285.2 0
-254672.66 237446.09 2115948.8 inf
-263689.06 237806.25 2117076.5 inf
-272634 238064.84 2117317.2 0
-281725 238412.5 2118407.5 0
-291061.31 238946.09 2121074.2 0
-300526.56 239567.58 2124307 0
-310014.06 240182.03 2127316.5 0
-319327.75 240636.72 2128865.8 inf
-328282.81 240798.83 2127775.8 inf
-337083.59 240835.16 2125468 inf
-346101.56 241022.66 2124384 inf
-355388.69 241387.89 2124771.5 inf
-364741.81 241776.95 2125305.5 0
-374220.69 242217.19 2126232.5 7.896777e-14
-383816.41 242710.94 2127554 inf
-393001.94 242935.94 2126461 0
-402075 243066.8 2124473 0
-411936.72 243655.86 2126355.8 0
-422140.62 244446.48 2129790.2 0
-432122.66 245085.16 2131729 0
-442326.94 245810.55 2134400.5 0
-452563.69 246526.17 2136971.5 0
-462099.62 246840.62 2135918.2 inf
-471315.25 246962.11 2133049.2 inf
-481204.31 247412.89 2133006.2 0
-491570.31 248095.7 2134915.2 0
-501638.28 248616.41 2135236.8 0
-511696.5 249108.59 2135163.8 0
-522413.28 249899.61 2137532.8 0
-533364.44 250790.23 2140573.5 inf
-543532 251286.33 2140166.5 inf
-553123.06 251488.28 2137176.2 inf
-562903.88 251780.86 2134726.2 inf
-572464.44 251985.55 2131327.2 inf
-581648.06 252015.23 2126328 0
-590952.38 252092.58 2121641.8 7.5345451e-14
-597523.44 250974.61 2107568.8 3.9311386e+25
-598846.5 247550 2075490.2 0
-602877.38 245302.34 2052538.2 0
-617409 247629.3 2065118 0
-635456.62 251447.27 2089384.8 0
-648756.62 253186.72 2097349.5 0
-658391.81 253380.86 2092846.9 0
-667017.56 253164.45 2084929.8 0
-676807.81 253358.98 2080377.8 inf
-689224.62 254510.94 2083636 inf
-702926.94 256090.23 2090419.5 0
-717345.31 257889.45 2098702.2 0
-732268.38 259875.39 2107928 0
-745276.94 261167.19 2111213 0
-755604.31 261486.72 2106438 0
-766765.62 262067.19 2103494.2 inf
-782364.06 264100 2112254.2 inf
-800366.81 266871.88 2127063 inf
-816189.06 268878.91 2135418.8 inf
-830163.31 270244.12 2138147.2 inf
-844835.56 271787.88 2142115.2 0
-857660.94 273101.56 2145313.2 4.7642007e-38
-862835.94 273555.47 2145824.2 30.246922
681439.88 208136.72 1694476.5 0
677583.19 207856.64 1694721.1 0
668664.44 207215.23 1695357.4 0
658328.88 206417.97 1695427.8 0
647857.44 205566.02 1694836 0
637420.31 204711.33 1694007 0
626678.5 203741.41 1691990.6 0
615578.5 202626.17 1688583.6 inf
604352.38 201428.91 1684398.9 inf
593876.94 200464.45 1682034.8 0
585039.06 200036.72 1684069.1 0
576383.62 199631.25 1686247.6 0
567184 199026.17 1686653.1 0
559121.5 198831.64 1690341.8 0
551314.44 198716.41 1694498.9 inf
543005.5 198425 1697068.8 inf
536009.38 198628.12 1703734 inf
529362.88 198958.2 1711290.6 inf
521622.28 198874.22 1715256.6 inf
513035.94 198440.62 1716228.9 1.4026998e-42
502969.53 197401.56 1711839.9 0
492571.47 196228.52 1706120.8 inf
484218.75 195873.05 1707325 0
476788.28 195869.92 1711422.2 0
467634.38 195107.03 1708939 0
457192.19 193769.14 1701463.6 0
447557.03 192779.69 1696683.6 0
439255.47 192368.75 1696635.1 0
431441.41 192133.59 1698193 0
423362.12 191732.42 1698493.8 inf
415497.66 191420.31 1699592.2 inf
408325.38 191446.09 1703388.6 0
400779.28 191312.11 1705362.5 0
391929.31 190539.45 1701459.4 0
381948.44 189148.83 1692158.6 0
371897.28 187662.11 1682124.2 0
363582.44 187046.48 1679764.5 inf
357882.03 187797.66 1689521.5 inf
353279.31 189134.38 1704527.4 inf
347171.09 189666.02 1712226.6 inf
338500 188794.14 1707034.8 5.3866162e+25
328616.81 187226.95 1695380.5 34.564369
319871.09 186271.48 1689344.9 0
312805.88 186260.94 1691889.9 inf
306244.94 186553.12 1697050.8 0
299962.12 187030.47 1703916.8 0
293927.75 187665.23 1712228.9 0
286949.22 187707.03 1714864.9 0
278824.22 187028.91 1710577.4 0
271124.22 186646.48 1708887.1 0
264197.25 186744.92 1711752.4 0
256697.66 186376.17 1710506.2 -0
248757.42 185686.33 1706302.4 inf
243712.11 187320.7 1723378.9 0
245180.86 194281.64 1789650.4 0
250205.86 204338.28 1884881.2 0
251507.42 211699.22 1955510.5 0
247961.72 215461.33 1992684.4 0
242767.58 218110.94 2019081.6 inf
236389.84 219817.19 2036493.4 inf
228302.73 219976.95 2039655.5 inf
219262.11 219216.8 2034350 inf
210444.53 218679.3 2030982.8 2.237045e+30
202303.91 218826.56 2033829.6 inf
194322.27 219123.83 2038063.2 0
186040.23 219090.62 2039198.5 inf
177505.47 218763.28 2037450.4 0
168954.69 218396.09 2035254.8 0
160666.02 218356.64 2036133.6 0
152675.39 218723.83 2040776.5 0
144590.62 218944.53 2043972.2 0
136102.34 218538.28 2041199.2 0
127415.23 217785.16 2035081.6 0
118919.53 217305.86 2031516.4 inf
110711.33 217297.27 2032308.2 inf
102408.2 217000.78 2030268 0
93353.516 214768.75 2010041.4 0
83319.141 209628.52 1962386.4 0
72951.172 202714.06 1897769.1 0
63062.5 195832.81 1833374.6 0
54039.453 190359.77 1782245.8 inf
46053.125 187612.89 1756857.4 inf
38806.25 186931.64 1751116.4 inf
31631.25 185788.28 1740848.5 inf
24344.922 183463.28 1719069.5 inf
17184.375 181230.47 1698051.5 1.4219411e+16
10228.906 180245.7 1688673.4 8.6960259e+10
3401.1719 180436.33 1690241.8 4.3273989e+30
-3383.5938 180516.41 1690880.9 0
-10185.156 180150.78 1687439.5 0
-16994.922 180043.36 1686373 0
-23737.109 179847.27 1684460.5 0
-30309.375 178785.94 1674520.8 0
-36775.391 177323.44 1660736.4 0
-43437.109 176901.17 1656380.1 0
-50421.484 177901.56 1665120.2 inf
-57433.984 178972.27 1674590.2 inf
-64227.734 179168.75 1675919.9 0
-71007.812 179159.38 1675264 0
-77877.344 179389.45 1677068 0
-84644.531 179410.55 1677008.6 0
-91405.469 179378.12 1676105.5 0
-98234.375 179481.25 1676330.5 inf
-105101.56 179597.66 1676826.1 inf
-112389.06 180334.38 1682980.5 inf
-120409.77 182149.61 1698868.8 inf
-128960.55 184577.73 1720412.9 inf
-137500.78 186769.14 1739896.1 0
-145700 188284.77 1753136 7.896777e-14
-154023.05 189745.31 1765828.1 inf
-163179.69 192037.5 1786195.8 0
-173859.77 195831.64 1820431.2 0
-186851.17 201784.77 1874755.5 0
-202120.31 209664.45 1947022.2 0
-218154.69 217826.95 2021565.6 0
-232419.14 223819.92 2075399.6 0
-243630.08 226530.47 2098541 0
-252968.36 227273.05 2103476.5 inf
-261878.52 227562.5 2104180.8 inf
-270908.59 227927.73 2105522.2 0
-280213.69 228492.19 2108716.5 0
-289554.31 229066.8 2111905.8 0
-298760.94 229515.23 2113691.8 0
-307954.69 229934.38 2115035.5 0
-317007.81 230232.81 2115234.8 inf
-325753.12 230283.98 2113189.8 inf
-334447.66 230280.47 2110630 inf
-343491.41 230508.2 2110094.5 inf
-352904.28 230973.83 2111625.5 inf
-362326.97 231431.25 2112992.2 0
-371596.09 231771.88 2113173 7.5345451e-14
-380741.41 232018.36 2112390.5 3.9311386e+25
-389773.44 232175.78 2110788.2 0
-399172.25 232526.95 2110896 0
-409207.41 233239.45 2114100.8 0
-419046.88 233839.06 2116081.8 0
-428534.78 234214.06 2115922.2 0
-438626.56 234878.91 2118394.2 0
-449007.03 235678.91 2122032 0
-458590.22 236048.05 2121576.2 inf
-467875.78 236236.33 2119361.8 inf
-477997.66 236816.8 2120694.2 0
-488550.41 237594.92 2123752 0
-498622.25 238126.56 2124394.2 0
-508577.34 238586.33 2124183.5 0
-518851.56 239187.5 2125064 0
-528860.12 239655.47 2124611.2 inf
-538327.75 239852.34 2121705.5 inf
-547653.88 239980.08 2118072 inf
-556578.5 239958.98 2112843.2 inf
-564328.5 239458.59 2103167.5 inf
-571496.12 238719.53 2091298.5 0
-579539.44 238339.06 2082655.1 4.7642007e-38
-588582.81 238348.44 2077630.1 30.246922
-598066.44 238517.97 2074039.5 1.8694549e-32
-607482.81 238665.23 2070094.1 0
-616896.5 238808.98 2065933.2 0
-627080.44 239247.66 2064137.9 0
-637378.88 239738.67 2062604.2 0
-646676.94 239842.58 2057639 0
-655529.31 239761.33 2051036.8 0
-665811.75 240191.02 2048615.2 inf
-679272.25 241735.94 2055562.1 inf
-695644.94 244241.41 2070775.8 0
-712287.12 246782.03 2086147.2 0
-726118 248345.7 2092660.5 0
-736372.62 248690.62 2088381.2 0
-744242.19 248232.03 2077118 0
-752884.75 248022.66 2067749.6 inf
-767519.94 249727.73 2074377.8 inf
-787933.19 253219.92 2096179.2 inf
-806839.44 256160.94 2113316.8 inf
-822107.44 257900.78 2119884.8 2.2582975e+11
-838137.5 259830.47 2127592.5 4.002918e-09
-853165.25 261800.39 2136596.5 3.8896381e-33
-859433.62 262585.94 2139969.5 2047289.2
683817.19 200976.56 1702489.9 0
679785.94 200664.06 1702310.5 0
670851.94 200063.28 1702986.4 0
661086.75 199482.81 1704626.1 0
651050.38 198797.66 1705242.6 0
640181.25 197843.36 1703322.6 0
628383.56 196584.38 1698509.8 0
616435.12 195254.3 1692843.4 inf
604390.62 193864.06 1686350.4 inf
592499.25 192500.39 1679891 0
583329.69 191975 1681000 0
576765.25 192245.7 1689352.8 0
569772.25 192385.94 1696289.5 0
561965.25 192303.12 1700775 0
553998.81 192164.45 1704633.6 inf
546101.94 192042.58 1708628.9 inf
538770.69 192137.89 1714310.1 inf
531119.94 192113.67 1718758.2 inf
522605.06 191758.59 1720256.6 5.3866162e+25
513810.56 191275 1720585.5 34.564369
504389.47 190518.75 1718477 0
494788.69 189682.42 1715584.8 inf
485969.94 189160.55 1715161 0
477333.59 188701.17 1715041 0
468675 188181.64 1714601.5 0
460028.12 187624.61 1713881.2 0
450696.88 186791.02 1710258.2 0
441195.69 185891.41 1705722.6 0
432576.56 185345.7 1704298 0
425017.19 185233.2 1706878.1 -0
418201.97 185435.16 1712384.8 inf
410939.06 185436.72 1715866.4 0
402153.91 184734.77 1712717.2 0
392530.06 183608.59 1705673.5 0
383321.88 182631.25 1700031.2 0
374716 181912.89 1696660.5 0
366685.16 181485.55 1695689 inf
359743.75 181631.64 1699729.2 inf
353855.84 182321.88 1708793.4 inf
347836.31 182904.3 1717189.5 inf
339793.75 182367.19 1715193.4 2.237045e+30
329802.72 180786.72 1703023.9 inf
320768.75 179732.81 1695639.5 0
313598.81 179674.61 1697689 inf
306944.12 179910.55 1702418.4 0
300853.12 180514.84 1710520.2 0
294821.09 181160.55 1718856.6 0
287227.75 180837.11 1717854.2 0
278563.69 179818.36 1710341.4 0
270580.06 179216.8 1706790.6 0
263464.84 179171.88 1708368.4 0
256264.06 179036.72 1709114.9 inf
248926.17 178800.78 1708986.4 inf
243964.06 180417.97 1726545.4 0
244954.3 186757.81 1789374.2 0
250014.45 196505.08 1885184.4 0
252167.58 204304.3 1962572.6 0
248983.98 208232.81 2002500 0
243127.73 210235.16 2023451.5 inf
236087.89 211298.44 2035401.1 inf
228015.62 211444.53 2038785.1 inf
219317.97 211014.06 2036586.8 inf
210598.44 210583.2 2034061.4 inf
202258.98 210532.03 2034896.1 1.4219411e+16
194107.03 210651.56 2037348 8.6960259e+10
185782.03 210567.19 2037946.1 4.3273989e+30
177271.48 210263.28 2036402.4 0
168815.62 210012.89 2035243.8 0
160577.73 210026.17 2036541.4 0
152497.66 210251.56 2039829.8 0
144349.22 210377.73 2042084.4 0
135937.5 210091.8 2040309.8 0
127385.55 209561.72 2036220.2 0
119002.34 209275.39 2034521.9 inf
110785.94 209227.34 2034986.8 inf
102389.06 208761.33 2031195.2 0
93380.469 206762.5 2012407.9 0
83486.719 202156.25 1968077.8 0
73150.391 195593.75 1904500.4 0
63266.797 189047.66 1841099.2 0
54266.406 183882.03 1791118.8 inf
46264.453 181325 1766395.2 inf
39051.562 181114.45 1764539 inf
31914.062 180432.81 1758053.5 inf
24565.234 178175.78 1736083.6 inf
17325.391 175925 1714253.1 0
10317.969 174635.55 1701811.8 7.896777e-14
3434.7656 174159.38 1697100 inf
-3392.5781 173933.59 1694748.9 0
-10213.672 173708.98 1692439.9 0
-17059.375 173810.94 1693412.5 0
-23910.938 174098.44 1696383.6 0
-30641.797 173767.97 1693206.6 0
-37224.219 172711.72 1682537.5 0
-43853.516 171973.05 1674755.1 0
-50620.703 172008.59 1674439.9 inf
-57432.422 172262.5 1676187.1 inf
-64134.375 172187.11 1674780.9 0
-70821.484 171998.83 1672347.6 0
-77784.375 172400 1675843.4 0
-84885.547 173099.22 1682488.2 0
-91843.75 173440.62 1685565.6 0
-98782.422 173648.83 1687071.9 inf
-105978.12 174212.11 1691900.8 inf
-113514.06 175253.91 1701273 inf
-121306.64 176604.3 1713418.8 inf
-129401.17 178234.38 1728121.1 inf
-137800 180082.03 1745104.8 0
-146215.62 181757.81 1760633.6 7.5345451e-14
-154682.42 183323.05 1774868.4 3.9311386e+25
-163826.17 185509.38 1794791.8 0
-174426.56 189073.83 1827945.2 0
-187187.11 194576.95 1879787.5 0
-202275.39 201979.3 1950093.4 0
-218075 209600.78 2022560.1 0
-231703.91 214765.62 2070905.1 0
-242338.28 216845.31 2089150.8 0
-251531.25 217452.34 2093184 inf
-260427.34 217759.38 2094213.6 inf
-269419.53 218131.25 2095656.2 0
-278661.72 218683.98 2098764 0
-287818.38 219141.8 2100980 0
-296753.91 219396.48 2101203.5 0
-305694.12 219643.36 2101218.8 0
-314519.91 219810.16 2100354 inf
-323142.19 219817.58 2097953.5 inf
-331828.12 219851.56 2095790.2 inf
-340874.62 220116.02 2095676.5 inf
-350317.19 220630.47 2097765.2 inf
-359708.19 221103.52 2099380 0
-368700.38 221308.2 2098423.8 4.7642007e-38
-377551.56 221400.78 2096397.2 30.246922
-386707.44 221650.39 2095852.8 1.8694549e-32
-396395.69 222191.8 2097936 0
-406345.31 222874.61 2101101.2 0
-415892.56 223328.52 2101938.8 0
-425223.44 223636.72 2101365.5 0
-435322.25 224311.33 2104235.5 0
-445711.31 225122.66 2108273.5 0
-455160.94 225450.39 2107536.2 inf
-464428.91 225657.81 2105546.5 inf
-474704.69 226328.52 2107914.5 0
-485280.47 227122.66 2111426.2 0
-495278.5 227622.27 2112064.8 0
-504981.25 227977.73 2111129.2 0
-514389.84 228211.72 2108807.5 0
-523143.75 228152.34 2103633.2 inf
-531648.06 227973.44 2097305.5 inf
-540037.88 227769.14 2090553.1 inf
-547481.25 227200.78 2080254.2 inf
-553413.69 226024.61 2064411.4 2.2582975e+11
-558846.12 224658.2 2046894.5 4.002918e-09
-565993.75 223985.94 2035763.6 3.8896381e-33
-575528.88 224251.56 2033276.1 2047289.2
-586078.5 224900 2034246.9 1.12701e+26
-596519.5 225485.94 2034562.9 0
-606885.94 226019.53 2034291.8 0
-617344.12 226589.45 2034052 0
-627417.56 227031.64 2032328.9 0
-636997.69 227282.03 2028766.8 0
-646477.75 227473.44 2024677.4 0
-656691 227912.5 2022597.2 inf
-669730.06 229312.89 2028735.5 inf
-686705.06 232009.38 2046184 0
-704205.5 234832.42 2064588.2 0
-717195.69 236119.14 2069164 0
-725133.56 235723.05 2058717.6 0
-730734 234569.92 2041570.4 0
-737518.75 233800 2027693 inf
-751169.94 235173.05 2032295.8 inf
-773176.94 239095.7 2058964.5 inf
-795609.38 243070.7 2086043 inf
-813523.81 245580.47 2100064 inf
-830651.19 247803.12 2110990.5 7.090962e+15
-846036.31 249860.94 2121191.5 1.50547e-23
-852364.88 250663.28 2124835.2 8.5170458e+15
686041.38 193728.12 1710029.8 0
681741 193351.56 1709180.9 0
672482 192688.28 1709087.9 0
662855.06 192184.77 1711165.2 0
653014.44 191594.53 1712342.2 0
642098.81 190662.11 1710343.4 0
630471.06 189486.72 1706064 0
618624.25 188222.27 1700729.8 -0
605362.12 186499.22 1690819.5 inf
591626.94 184601.56 1679147.2 0
582601.19 184150.39 1680753.5 0
578139.44 185126.95 1695288.6 0
572172.25 185641.41 1705225.8 0
563376.19 185262.11 1706754.2 0
554712.5 184910.94 1708602 inf
546925.38 184831.64 1712949.6 inf
539198.06 184775.78 1717363.6 inf
531052.38 184570.31 1720265.2 inf
522202.75 184103.12 1720616.8 2.237045e+30
513161.72 183553.12 1720095.8 inf
504292.97 183044.53 1719903.9 0
495475.78 182543.36 1719700 inf
486455.88 181953.52 1718498 0
477281.62 181288.67 1716478.9 0
469262.5 181048.83 1718499.6 0
461835.16 181015.62 1722363.6 0
452944.12 180400 1720477.8 0
443263.69 179460.16 1715375.4 0
434234.38 178763.28 1712441.4 0
426341.41 178528.91 1713800 inf
419301.56 178644.92 1718434.4 inf
411770.69 178533.98 1720861.4 0
403319.12 177996.88 1719300 0
394803.5 177408.2 1717251.1 0
386615.22 176969.53 1716323.9 0
378340.62 176496.88 1714693.8 0
369700 175838.28 1711094.9 inf
360856.25 175063.28 1706197.2 inf
352933.19 174733.2 1705590.2 inf
346987.91 175351.56 1714581.2 inf
340712.5 175729.3 1721519.5 inf
331891.81 174785.55 1715365.6 1.4219411e+16
322832.41 173758.59 1708013.2 8.6960259e+10
315247.66 173511.33 1708074.6 4.3273989e+30
308132.81 173512.11 1710416.4 0
301321.09 173707.81 1714472.6 0
294269.53 173738.67 1716837.1 0
286173.81 173109.38 1712900.8 0
278363.69 172627.73 1710726.1 0
271478.12 172703.12 1713952.8 0
264429.31 172698.05 1715938.2 0
257092.58 172519.92 1716088.6 inf
250080.86 172553.91 1718451.6 inf
245050.78 174076.95 1735557.9 0
245101.17 179507.42 1791588.6 0
249420.7 188366.8 1882160.1 0
251730.86 196005.86 1960859.4 0
248471.09 199683.98 1999753.5 0
241904.69 200989.45 2014562.9 inf
234648.83 201807.81 2024572.2 inf
227092.97 202374.61 2032250.8 inf
218924.61 202413.28 2034571.9 inf
210306.25 202061.72 2032699.2 inf
201706.25 201730.47 2030698.5 0
193308.98 201582.42 2030415.2 7.896777e-14
184992.97 201496.09 2030869.5 inf
176648.83 201357.03 2030860.9 0
168290.62 201182.81 2030378.5 0
159955.08 201019.92 2029876.1 0
151671.09 200914.06 2029920.8 0
143425.39 200846.88 2030316 0
135141.41 200706.64 2029914.9 0
126880.86 200596.09 2029834.4 0
118741.02 200662.11 2031536.8 inf
110556.25 200616.02 2032004.2 inf
102120.7 200069.53 2027299.6 0
93220.312 198362.5 2010734.8 0
83507.031 194318.36 1970293.4 0
