# .PCD v0.7 - Point Cloud Data file format
VERSION 0.7
FIELDS x y z intensity
SIZE 4 4 4 4
TYPE F F F F
COUNT 1 1 1 1
WIDTH 1339
HEIGHT 1
VIEWPOINT 0 0 0 1 0 0 0
POINTS 1339
DATA ascii
673.26331 -302.36563 1733.3293 0
662.16833 -300.97305 1732.1257 0
651.18713 -299.60431 1730.8239 0
640.73987 -298.46796 1730.634 inf
631.66638 -297.9668 1733.934 8.9744595e+20
623.17419 -297.73282 1738.566 0
613.61877 -296.96484 1739.9602 0
603.4082 -295.84335 1739.2699 0
591.90393 -294.02304 1734.2386 0
577.63831 -290.7789 1720.4622 0
565.27771 -288.47968 1712.2136 inf
560.6297 -290.10822 1727.4602 inf
560.12146 -293.86798 1755.4797 inf
555.01794 -295.22772 1769.0222 inf
543.51288 -293.21915 1762.0844 1.1947828e+16
529.75354 -289.9711 1747.3625 0
516.62268 -286.99258 1734.073 4.657741e-33
506.13046 -285.43399 1729.2688 25.250797
499.85663 -286.26212 1738.8414 inf
496.65155 -288.8754 1759.2375 0
491.61212 -290.40469 1773.0168 0
480.44101 -288.27188 1764.2731 0
465.12149 -283.59921 1739.7285 0
451.85352 -280.11133 1722.3199 0
443.21759 -279.41016 1721.9828 0
435.62891 -279.27734 1725.1731 inf
427.18515 -278.57343 1724.9949 inf
419.72226 -278.52655 1728.7996 0
412.63983 -278.74298 1733.8484 0
405.12421 -278.71405 1737.057 0
398.27423 -279.17969 1743.1379 0
391.38046 -279.60858 1748.861 0
383.24023 -279.12695 1748.9183 inf
374.83319 -278.43634 1747.7426 inf
367.55389 -278.55429 1751.7598 inf
360.14142 -278.49609 1754.7109 inf
350.66171 -276.80585 1747.1321 inf
340.07852 -274.21719 1733.6086 0
330.30975 -272.19531 1723.6829 2.5486163e-28
322.03632 -271.33478 1721.1296 2.4762539e+30
314.69025 -271.24179 1723.1941 inf
307.77109 -271.54688 1727.6328 0
301.70117 -272.63321 1737.1121 0
295.92267 -274.01562 1748.3262 0
288.77069 -274.16171 1751.2996 0
280.46796 -273.23593 1747.405 0
272.91953 -273.00275 1748.2664 0
265.77969 -273.07501 1751.1937 inf
257.44882 -271.90039 1745.8027 inf
248.89999 -270.54922 1738.925 0
243.06015 -272.26288 1751.8679 0
242.08359 -279.70312 1802.1816 0
244.70743 -291.75195 1882.5247 0
246.37305 -303.2121 1958.9968 0
243.78671 -310.01718 2005.1394 inf
238.03165 -313.28867 2028.2086 inf
231.35312 -315.58124 2044.8649 inf
223.79532 -316.7215 2054.0793 inf
215.08359 -316.27109 2052.9695 inf
206.06641 -315.38556 2048.9055 0
197.38359 -314.97656 2047.7601 1.0939846e-18
188.9418 -314.91681 2048.7964 inf
180.51132 -314.84921 2049.7839 inf
172.08163 -314.77969 2050.7598 0
163.77304 -314.96173 2053.2761 0
155.44727 -315.09491 2055.3152 0
146.84688 -314.6496 2053.4863 0
138.21016 -314.14413 2051.2415 0
129.88126 -314.31366 2053.4109 0
121.62968 -314.60117 2056.3145 inf
113.09219 -314.10898 2054.0032 inf
104.44102 -313.29337 2049.4673 0
95.945702 -312.82733 2047.1555 0
87.155861 -310.91171 2035.1676 0
77.396873 -304.57578 1993.8997 0
67.033592 -294.51523 1928.1921 0
57.11367 -284.42267 1862.3949 inf
48.085155 -276.50195 1810.4688 inf
39.893749 -271.5957 1777.9926 inf
32.337502 -269.3793 1763.5153 inf
25.044531 -268.08008 1755.3137 inf
17.817188 -267.20743 1749.7292 1.8363423e-23
10.666407 -267.50702 1751.8649 0
3.5527344 -268.44843 1758.3633 1982525.2
-3.5648437 -268.59415 1759.4906 inf
-10.558985 -266.48672 1745.6145 0
-17.314453 -261.97968 1715.9437 0
-24.017969 -258.125 1690.525 0
-30.869923 -257.2793 1684.5535 0
-37.821095 -257.9621 1688.3079 0
-44.853127 -258.80624 1693.3636 0
-51.895313 -259.49689 1697.8024 inf
-58.766014 -259.35703 1696.7117 inf
-65.66172 -259.159 1695.0215 0
-72.7957 -259.86719 1699.2383 0
-79.892578 -260.49374 1702.7855 0
-87.064453 -261.11484 1706.0801 0
-94.692581 -262.87891 1716.8812 0
-102.28593 -264.49335 1726.8226 inf
-109.49922 -264.92227 1728.9434 inf
-116.64766 -265.10156 1729.3176 inf
-123.8168 -265.32538 1729.9137 inf
-131.30742 -266.08945 1733.9711 8.5838792e+20
-139.17265 -267.54337 1742.5082 1.419668e-18
-147.24805 -269.23944 1752.6078 3.5036939e-33
-156.35507 -272.46719 1772.6868 inf
-166.69609 -277.54062 1804.7223 inf
-177.25391 -282.63556 1836.614 0
-188.29688 -287.99725 1869.8496 0
-201.81796 -296.45312 1923.073 0
-218.48828 -308.74139 2001.5309 0
-235.24141 -320.46014 2076.5383 0
-248.58359 -326.95978 2117.3574 0
-258.85391 -328.9996 2128.8235 inf
-268.06406 -329.53125 2130.3198 inf
-276.91837 -329.61328 2128.7368 0
-285.43204 -329.30585 2124.4731 0
-293.92072 -328.96719 2119.936 0
-302.87695 -329.13632 2118.614 0
-312.08905 -329.591 2119.0684 0
-320.98322 -329.70508 2117.2969 inf
-329.94101 -329.85272 2115.6372 inf
-339.80704 -330.87775 2119.4106 inf
-350.20078 -332.39728 2126.2222 inf
-359.62109 -332.96991 2126.9316 3.5381136e+25
-367.89023 -332.42499 2120.4863 7.4101885e-38
-376.44257 -332.10236 2115.4897 0
-385.73322 -332.44025 2114.6829 1.2121861e+11
-395.26602 -332.99103 2115.0249 inf
-404.95587 -333.66992 2115.8979 0
-414.75546 -334.41562 2117.0618 0
-424.52032 -335.09805 2117.7747 0
-434.03711 -335.56406 2117.0522 0
-443.19257 -335.71719 2114.355 0
-452.54376 -335.98087 2112.3313 0
-462.55118 -336.71524 2113.1694 inf
-472.53046 -337.42462 2113.7273 inf
-481.79532 -337.62579 2110.8523 0
-490.89493 -337.70898 2106.9949 0
-500.20197 -337.92343 2103.9387 0
-509.08633 -337.83905 2099.0769 0
-517.81561 -337.62579 2093.4031 0
-527.1922 -337.82462 2090.2266 inf
-535.70117 -337.51251 2083.7375 inf
-541.34802 -335.45197 2066.2754 inf
-544.88983 -332.15781 2041.0797 4.3212213e+30
-548.75354 -329.15585 2017.5535 48.486214
-555.52148 -327.94922 2004.9879 0
-565.38947 -328.60626 2003.7708 0
-575.98401 -329.70392 2005.0101 2.3361999e-23
-586.87891 -330.92969 2006.8379 inf
-599.09534 -332.82187 2012.7441 0
-612.04651 -335.04376 2020.6813 0
-624.60779 -336.98944 2026.8285 0
-636.28711 -338.42303 2029.6511 0
-646.65588 -339.15079 2027.9648 0
-655.11133 -338.86993 2020.0996 0
-662.50549 -338.02109 2008.8105 inf
-671.24139 -337.85547 2001.473 inf
-681.37384 -338.41562 1998.2926 5.2858409e-18
-691.00861 -338.7254 1993.5007 0
-700.62109 -339.00937 1988.3223 0
-711.68555 -339.99139 1986.9824 0
-724.39923 -341.71289 1989.9125 0
-738.03595 -343.79376 1994.9867 inf
-751.82971 -345.8797 1999.9801 inf
-766.27893 -348.21173 2006.1082 inf
-781.4176 -350.83984 2013.489 inf
-795.71521 -353.07892 2018.1547 3.7775321e+25
-809.32306 -354.94882 2020.4476 4.6622582e-33
-822.5094 -357.07657 2025.1907 0
-828.79846 -358.25079 2028.7078 1.3422135e+11
710.93671 -315.59375 1735.5828 inf
707.42853 -315.39297 1737.2449 0
698.75623 -314.69025 1739.7738 0
687.93591 -313.46054 1740.1234 0
676.59998 -311.98282 1738.8344 0
665.18201 -310.4379 1736.934 0
653.89728 -308.92227 1735.0023 0
643.18866 -307.63361 1734.2402 inf
633.90936 -306.9996 1737.1227 inf
625.66913 -306.86288 1742.6067 0
616.41565 -306.23282 1744.9926 0
606.8949 -305.49023 1746.5144 0
597.20154 -304.62421 1747.059 0
585.10352 -302.47382 1740.0515 0
573.65466 -300.62384 1734.8824 inf
567.18127 -301.32147 1744.764 inf
563.12189 -303.26678 1761.9633 inf
555.875 -303.54413 1768.9672 inf
544.27032 -301.48358 1761.818 inf
530.72931 -298.28009 1747.8535 0
517.70428 -295.27579 1735.0281 2.5486163e-28
507.51328 -293.84491 1731.3676 2.4762539e+30
501.48553 -294.82501 1741.9094 inf
498.27383 -297.47696 1762.3796 0
493.23907 -299.05234 1776.3086 0
483.34726 -297.73047 1772.5582 0
470.28241 -294.44061 1756.6926 0
457.7215 -291.36603 1742.1965 0
447.82147 -289.85391 1737.3157 0
437.96875 -288.23749 1731.7933 inf
426.57343 -285.56561 1719.7523 inf
416.71405 -283.91992 1713.6868 0
409.1293 -283.80234 1716.566 0
402.83554 -284.61133 1724.8961 0
397.89493 -286.40155 1739.2136 0
392.61053 -287.95392 1752.0778 0
385.72382 -288.39883 1758.0101 inf
378.27109 -288.46289 1761.4945 inf
370.48633 -288.20743 1763.2035 inf
361.32812 -286.79572 1757.9089 inf
351.04141 -284.46564 1746.6672 inf
341.01678 -282.31757 1736.1637 0
331.4953 -280.49374 1727.5172 1.0939846e-18
322.30353 -278.84375 1720.0856 inf
314.18829 -278.07892 1718.1531 inf
307.46796 -278.56796 1723.7468 0
301.42422 -279.68634 1733.2175 0
295.48087 -280.91797 1743.5383 0
289.13751 -281.8121 1751.6301 0
281.91992 -281.90274 1754.4778 0
274.12421 -281.409 1753.668 0
265.875 -280.37579 1749.491 inf
257.30548 -278.97968 1742.8054 inf
249.6582 -278.61954 1742.3645 0
244.45078 -281.08047 1759.7395 0
242.83281 -287.95001 1805.1824 0
244.50546 -299.22382 1878.434 0
246.16602 -311.06406 1955.0352 0
244.19531 -318.88751 2006.2113 inf
238.85078 -322.79297 2032.8079 inf
232.14844 -325.09259 2049.4087 inf
224.36758 -325.95233 2056.8071 inf
215.4836 -325.27734 2054.2388 inf
206.35587 -324.24023 2049.2449 1.8363423e-23
197.58203 -323.69571 2047.3469 0
189.08398 -323.54803 2047.9261 1982525.2
180.63945 -323.45782 2048.823 inf
172.18633 -323.34259 2049.5027 0
163.82812 -323.43243 2051.4246 0
155.50468 -323.58163 2053.6179 0
146.99141 -323.33789 2053.1226 0
138.43477 -323.03241 2052.1255 0
130.075 -323.15665 2053.9292 0
121.71992 -323.20587 2055.3179 inf
113.11601 -322.52032 2051.9375 inf
104.44531 -321.61679 2047.009 0
95.926559 -321.0621 2044.2086 0
87.176559 -319.30273 2033.6156 0
77.595314 -313.56445 1997.4196 0
67.301956 -303.45978 1933.2289 0
57.249611 -292.61328 1864.2164 inf
48.297264 -285.52423 1818.9211 inf
40.391796 -282.72852 1800.9437 inf
32.874611 -281.01523 1790.1497 inf
25.397266 -278.90155 1776.9551 8.5838792e+20
18.038671 -277.51874 1768.4082 1.419668e-18
10.801562 -276.92148 1764.9583 3.5036939e-33
3.596875 -276.5246 1762.7386 inf
-3.569922 -276.10587 1760.1019 inf
-10.592969 -274.20663 1747.7703 0
-17.381641 -269.9328 1720.1211 0
-24.110937 -266.06406 1695.0476 0
-31.091015 -265.76642 1692.8558 0
-38.297264 -267.85703 1705.8832 0
-45.428905 -269.19061 1714.0632 0
-52.323048 -268.81992 1711.4066 inf
-59.059765 -267.68475 1703.8304 inf
-65.903908 -267.10352 1699.7292 0
-73.010941 -267.6203 1702.5312 0
-80.207031 -268.46915 1707.2504 0
-87.581642 -269.64764 1713.9684 0
-95.266403 -271.55975 1725.47 0
-102.68242 -272.65234 1731.8601 inf
-109.65547 -272.39688 1729.6215 inf
-116.62656 -272.12305 1727.1403 inf
-123.68789 -272.11328 1726.2269 inf
-131.0668 -272.67032 1728.8965 3.5381136e+25
-138.89493 -274.08047 1736.8762 7.4101885e-38
-146.98087 -275.9035 1747.2555 0
-155.74023 -278.70703 1763.859 1.2121861e+11
-165.60352 -283.13712 1790.8422 inf
-176.43164 -288.80624 1825.498 0
-188.88126 -296.49921 1872.657 0
-204.03516 -307.63477 1941.5027 0
-220.78047 -320.35196 2020.6266 0
-235.93906 -330.06329 2080.8723 0
-247.72578 -334.54297 2107.7222 0
-257.19141 -335.59686 2112.5554 inf
-265.97577 -335.67657 2111.0242 inf
-274.75195 -335.74258 2109.2534 0
-283.48047 -335.76837 2107.116 0
-292.01056 -335.55899 2103.4438 0
-300.75507 -335.5582 2101.0571 0
-309.90195 -336.00546 2101.4128 0
-318.88788 -336.29218 2100.646 inf
-327.93594 -336.60236 2099.9272 inf
-337.90665 -337.80157 2104.7183 inf
-348.39688 -339.48712 2112.4517 4.3212213e+30
-358.06915 -340.35468 2114.884 48.486214
-366.55624 -340.05939 2109.9868 0
-374.63397 -339.35196 2102.6304 0
-382.82343 -338.75861 2096.0117 2.3361999e-23
-391.57266 -338.68008 2092.3933 inf
-401.32306 -339.48007 2093.9585 0
-411.48047 -340.60858 2097.4136 0
-421.62421 -341.66446 2100.3406 0
-431.61212 -342.56329 2102.2175 0
-440.80899 -342.81366 2100.0659 0
-449.85352 -342.89999 2096.8516 0
-459.54337 -343.46954 2096.4985 inf
-468.95782 -343.83749 2094.7988 inf
-478.05313 -343.94647 2091.3589 5.2858409e-18
-487.79141 -344.50586 2090.5339 0
-497.52655 -345.06525 2089.6387 0
-506.19415 -344.88556 2084.1304 0
-514.15979 -344.22931 2075.6218 0
-522.1922 -343.61835 2067.394 inf
-529.39142 -342.50195 2056.1079 inf
-534.17499 -339.8996 2035.7644 inf
-537.50897 -336.45743 2010.2441 inf
-542.15466 -333.92813 1990.0605 3.7775321e+25
-550.16406 -333.51523 1982.4348 4.6622582e-33
-561.68787 -335.2215 1987.3816 0
-574.87927 -337.88828 1997.8625 1.3422135e+11
-587.91797 -340.38828 2007.2211 inf
-600.2594 -342.37616 2013.6051 0
-612.29456 -344.11172 2018.4167 0
-624.10626 -345.69531 2022.0625 0
-635.09845 -346.79608 2022.6863 0
-645.16681 -347.36523 2020.0481 0
-654.1051 -347.33633 2013.6949 0
-662.25818 -346.90118 2004.75 inf
-671.54883 -347.05389 1999.0754 inf
-682.03906 -347.82071 1996.9055 6.5174651e+35
-691.74725 -348.16913 1992.2797 0
-701.51758 -348.51172 1987.4714 0
-713.54456 -349.95468 1988.7386 0
-727.05548 -352.09375 1993.8187 0
-740.23669 -354.02109 1997.5465 inf
-752.28125 -355.36639 1997.7805 inf
-763.93085 -356.46875 1996.5035 inf
-777.59845 -358.45782 1999.9895 3.0408549e+35
-793.37146 -361.40741 2008.4324 1.2558161e+11
-809.2207 -364.35117 2016.434 7.4125157e-38
-823.43359 -367.01093 2023.734 2.4234039e-28
-829.8797 -368.29141 2027.6282 1.0425737e+11
717.92267 -326.99765 1749.3914 inf
713.58948 -326.41953 1749.0828 0
703.23126 -324.94025 1747.616 0
691.59143 -323.32462 1746.1637 0
680.62927 -322.00937 1746.0437 0
669.76562 -320.71368 1745.7961 0
658.76447 -319.31796 1744.8402 0
647.48206 -317.73087 1742.6989 inf
636.82111 -316.42032 1741.9707 inf
627.48712 -315.75235 1744.5726 0
617.90546 -314.93906 1746.1683 0
609.20276 -314.57928 1750.2383 0
601.48438 -314.69962 1756.7864 0
592.06915 -313.94571 1758.0964 0
582.68945 -313.23788 1759.4973 inf
574.11487 -312.86914 1763.016 inf
564.56677 -311.89258 1763.3187 inf
554.9375 -310.89844 1763.1559 inf
544.75977 -309.59335 1760.6816 inf
531.96643 -306.71915 1749.1129 0
518.86133 -303.61288 1736.1609 1.0939846e-18
509.18204 -302.48398 1734.3542 inf
502.71445 -303.22031 1743.3152 inf
497.4039 -304.62616 1756.3372 0
491.21054 -305.51797 1766.223 0
483.44962 -305.51093 1770.4688 0
474.05038 -304.46759 1768.3679 0
462.78671 -302.1535 1758.8629 0
451.28125 -299.58868 1748.027 0
439.49765 -296.70938 1735.1934 inf
426.79688 -293.12891 1717.9915 inf
416.23358 -290.99454 1709.0961 0
409.18515 -291.29688 1714.3196 0
403.85507 -292.81952 1726.7738 0
399.13788 -294.79999 1742.1184 0
393.97656 -296.50275 1755.7172 0
387.86954 -297.57852 1765.427 inf
380.93671 -298.03125 1771.4476 inf
372.27264 -297.07501 1769.068 inf
361.88437 -294.70428 1758.0547 inf
351.55975 -292.34335 1746.866 inf
342.67267 -291.12851 1742.3773 1.8363423e-23
334.57306 -290.52423 1741.3855 0
325.52188 -289.00116 1734.8531 1982525.2
316.06485 -287.04727 1725.9109 inf
308.40585 -286.70819 1726.6907 0
302.15781 -287.66992 1735.1078 0
295.36639 -288.09726 1740.3301 0
287.89102 -287.86053 1741.6335 0
280.56796 -287.81366 1743.8235 0
273.19843 -287.73126 1745.448 0
265.10077 -286.84726 1742.0891 inf
256.79883 -285.716 1737.2102 inf
249.66641 -285.88751 1740.2859 0
244.50117 -288.38126 1757.698 0
242.10352 -294.43634 1797.0996 0
243.28946 -305.42267 1866.6672 0
245.68672 -318.53827 1949.0641 0
244.72461 -327.87265 2008.2015 inf
239.46094 -331.95782 2035.2668 inf
232.07657 -333.35547 2045.9329 inf
223.85625 -333.6293 2049.5417 inf
215.15625 -333.22382 2048.6824 8.5838792e+20
206.24805 -332.47382 2045.5833 1.419668e-18
197.38594 -331.74414 2042.6469 3.5036939e-33
188.73828 -331.31876 2041.5746 inf
180.26367 -331.15469 2042.032 inf
171.85977 -331.10782 2043.1019 0
163.49922 -331.15625 2044.6813 0
155.13554 -331.1922 2046.1399 0
146.71562 -331.11133 2046.7852 0
138.33749 -331.15781 2048.1294 0
130.05273 -331.44025 2050.9097 0
121.63359 -331.30939 2051.1145 inf
112.92461 -330.2836 2045.7094 inf
104.2289 -329.26407 2040.2125 0
95.766403 -328.86954 2038.4449 0
87.114059 -327.4332 2030.0652 0
77.721092 -322.36835 1998.9352 0
67.625778 -312.95782 1940.5618 0
57.652344 -302.44882 1875.2812 inf
48.742577 -295.83554 1834.3926 inf
40.863281 -293.51172 1820.3718 inf
33.27422 -291.72736 1809.6062 inf
25.68125 -289.18866 1793.9714 3.5381136e+25
18.208202 -286.58514 1778.0918 7.4101885e-38
10.85586 -283.79648 1761.2496 0
3.5902343 -281.9129 1749.7926 1.2121861e+11
-3.5765624 -281.73282 1748.5305 inf
-10.633204 -281.13593 1744.446 0
-17.546875 -278.61798 1728.2484 0
-24.371485 -275.77423 1710.1211 0
-31.292969 -274.71484 1703.5618 0
-38.381248 -275.45352 1708.3988 0
-45.454689 -276.20859 1712.9801 0
-52.384377 -275.9957 1711.0898 inf
-59.216015 -275.30743 1706.1215 inf
-66.085548 -274.85077 1702.7273 0
-73.139061 -275.10822 1703.8883 0
-80.371094 -275.96014 1708.6914 0
-87.910545 -277.5914 1718.141 0
-95.639847 -279.66992 1730.28 0
-102.85 -280.20547 1732.8906 inf
-109.51562 -279.14142 1725.5579 inf
-116.22305 -278.24258 1719.2117 inf
-123.14883 -277.95624 1716.6012 4.3212213e+30
-130.47696 -278.49609 1718.9739 48.486214
-138.52579 -280.43124 1729.809 0
-147.27734 -283.62189 1748.1731 0
-156.57382 -287.56015 1771.0481 2.3361999e-23
-166.41055 -292.05038 1797.5066 inf
-177.13907 -297.57462 1830.516 0
-190.09805 -306.1203 1882.0449 0
-205.82578 -318.341 1956.0895 0
-221.91641 -330.38126 2029.0403 0
-235.58554 -338.15625 2075.5457 0
-246.37695 -341.37109 2093.6028 0
-255.45898 -342.00156 2095.5293 inf
-264.034 -341.88516 2092.7781 inf
-272.73749 -341.92538 2090.9097 5.2858409e-18
-281.64764 -342.23749 2090.573 0
-290.40234 -342.375 2089.0012 0
-299.14258 -342.45157 2087.0059 0
-308.25977 -342.92343 2087.4609 0
-317.47617 -343.49844 2088.4539 inf
-326.71405 -344.06329 2089.2434 inf
-336.24139 -344.88672 2091.6069 inf
-346.10077 -346.0047 2095.6907 inf
-356.00311 -347.14374 2099.6543 3.7775321e+25
-365.1203 -347.50351 2098.7729 4.6622582e-33
-373.0043 -346.66602 2090.686 0
-380.23322 -345.24103 2079.0176 1.3422135e+11
-388.2121 -344.52499 2071.5054 inf
-397.8996 -345.3371 2073.0742 0
-408.28241 -346.74414 2078.105 0
-418.45233 -347.90039 2081.5422 0
-428.49258 -348.90234 2083.9702 0
-437.96405 -349.43204 2083.4407 0
-447.30975 -349.81757 2081.9407 0
-457.10626 -350.53671 2082.3516 inf
-466.23398 -350.74649 2079.6243 inf
-474.88007 -350.54999 2074.4214 6.5174651e+35
-484.48163 -351.03906 2073.228 0
-494.41171 -351.79572 2073.4114 0
-503.46954 -351.94336 2069.7603 0
-511.68008 -351.49103 2062.502 0
-519.29181 -350.62851 2052.8484 inf
-525.6543 -348.9707 2038.5039 inf
-529.88007 -345.97656 2016.2664 inf
-533.48126 -342.65155 1991.989 3.0408549e+35
-539.54456 -340.98358 1977.2141 1.2558161e+11
-549.34296 -341.70663 1976.2321 7.4125157e-38
-562.10468 -344.22031 1985.6497 2.4234039e-28
-576.1582 -347.4328 1999.1136 1.0425737e+11
-589.17072 -349.93634 2008.4016 inf
-599.98163 -351.06525 2009.6101 0
-610.68634 -352.08282 2009.8883 0
-622.54883 -353.76132 2013.6848 0
-633.44452 -354.87305 2014.1285 0
-642.85193 -355.10822 2009.4711 0
-652.26483 -355.34024 2004.5797 0
-662.06134 -355.78555 2000.6895 inf
-672.33984 -356.46289 1998.0344 inf
-682.99023 -357.31525 1996.2727 inf
-692.65857 -357.65274 1991.4645 0
-701.60663 -357.58087 1984.309 0
-712.79138 -358.60312 1983.1516 0
-726.87659 -361.08163 1989.7426 0
-741.17969 -363.64493 1996.4915 inf
-753.01208 -364.94141 1996.1804 inf
-762.6543 -365.11874 1989.6422 inf
-774.39337 -366.24884 1988.0852 inf
-790.32538 -369.34219 1996.9047 1.4219402e+16
-807.49884 -372.97305 2008.3059 1.9203528e-23
-822.00354 -375.8371 2016.443 7.9911427e-38
-828.13672 -377.00702 2019.6149 2048062.2
723.6781 -337.90079 1760.0367 inf
718.77966 -337.06055 1758.402 0
707.10779 -334.96915 1753.8503 0
694.65784 -332.97266 1750.5911 0
683.8797 -331.73163 1751.1293 0
673.20667 -330.49374 1751.5261 0
661.99377 -328.96054 1750.1793 0
650.3703 -327.18829 1747.2903 inf
639.32733 -325.68829 1745.6699 inf
629.71405 -324.88556 1747.6282 0
619.79218 -323.88593 1748.3503 0
610.22968 -323.05975 1750.0078 0
602.08594 -322.95859 1755.457 0
594.69647 -323.3125 1763.0496 0
588.44958 -324.32031 1774.0687 inf
579.17657 -323.54962 1775.4008 inf
564.91016 -319.92072 1761.0813 inf
552.60193 -317.4086 1752.7054 inf
543.66174 -316.78241 1754.2859 inf
532.09375 -314.54218 1746.6285 1.8363423e-23
519.31213 -311.56366 1734.8453 0
511.05975 -311.29883 1738.0605 1982525.2
505.35196 -312.53436 1749.5657 inf
497.8125 -312.59296 1754.6547 0
489.05157 -311.87891 1755.4648 0
481.13828 -311.72736 1759.225 0
473.23672 -311.58282 1762.6722 0
463.13751 -309.96954 1757.5032 0
451.71249 -307.42694 1746.9789 0
440.09766 -304.63788 1734.9504 inf
428.08282 -301.48398 1720.6145 inf
418.58319 -300.11444 1716.2878 0
413.06561 -301.58478 1728.1555 0
408.04962 -303.37695 1742.0645 0
402.06601 -304.47772 1752.2086 0
396.34415 -305.8457 1763.7621 0
390.23322 -306.94257 1773.6152 inf
382.27499 -306.57382 1774.9602 inf
372.78555 -304.98477 1768.9485 inf
363.12189 -303.2457 1761.7047 inf
353.92734 -301.82812 1756.264 8.5838792e+20
345.68439 -301.16486 1755.3441 1.419668e-18
338.34686 -301.25665 1758.8035 3.5036939e-33
330.03009 -300.42734 1756.6204 inf
320.10977 -298.091 1745.4902 inf
311.16406 -296.625 1739.593 0
304.1582 -296.93475 1744.1605 0
296.46445 -296.48438 1744.1687 0
287.46835 -294.72812 1736.4078 0
279.59726 -294.14844 1735.4148 0
273.03555 -294.92694 1742.1926 0
265.97696 -295.17969 1745.666 inf
258.08047 -294.49063 1743.5621 inf
250.23633 -293.79022 1741.6516 0
243.70235 -294.65234 1749.2434 0
240.29179 -299.58829 1781.0394 0
241.2957 -310.5914 1848.9304 0
244.23828 -324.68399 1935.2266 0
243.91484 -335.02539 1999.0297 inf
238.66837 -339.15936 2025.6843 inf
230.86406 -339.95938 2032.3785 inf
222.57071 -340.12775 2035.1898 inf
214.23946 -340.22968 2037.4691 3.5381136e+25
205.60156 -339.80624 2036.5195 7.4101885e-38
196.73984 -338.99493 2033.2086 0
188.02734 -338.40079 2031.1625 1.2121861e+11
179.54805 -338.18399 2031.3164 inf
171.23711 -338.2746 2033.1985 0
162.98087 -338.47031 2035.6039 0
154.64609 -338.50079 2036.9929 0
146.24609 -338.39062 2037.5277 0
137.88672 -338.38712 2038.6816 0
129.61719 -338.64453 2041.3489 0
121.25468 -338.61603 2042.1422 inf
112.59492 -337.64453 2037.111 inf
103.93789 -336.67267 2032.016 0
95.584763 -336.6297 2032.4215 0
87.148827 -336.00311 2029.0973 0
78.090233 -332.33282 2007.1481 0
68.369141 -324.67227 1960.8613 0
58.591015 -315.2785 1904.0461 inf
49.541405 -308.07227 1860.777 inf
41.314064 -303.84491 1835.8457 inf
33.489063 -300.99454 1819.0398 4.3212213e+30
25.855078 -298.56561 1804.4524 48.486214
18.326563 -294.95273 1782.739 0
10.865234 -290.15234 1753.85 0
3.565625 -287.45819 1737.5364 2.3361999e-23
-3.5742188 -287.62189 1738.5105 inf
-10.660937 -287.91797 1740.2347 0
-17.72578 -287.30273 1736.1523 0
-24.680079 -285.97812 1727.6891 0
-31.476954 -283.8078 1714.3918 0
-38.273827 -281.99649 1703.4395 0
-45.251564 -281.8418 1702.2426 0
-52.398827 -282.84415 1707.707 inf
-59.503906 -283.58319 1711.5648 inf
-66.426559 -283.36172 1709.7699 5.2858409e-18
-73.245316 -282.65509 1705.1882 0
-80.22422 -282.48944 1703.8571 0
-87.791016 -284.16171 1713.3864 0
-95.589844 -286.57343 1727.218 0
-102.66445 -286.79608 1727.7922 inf
-109.16758 -285.30585 1717.9382 inf
-115.77422 -284.20428 1710.3766 inf
-122.77461 -284.1207 1708.9098 inf
-130.50664 -285.60117 1716.7356 3.7775321e+25
-139.19101 -288.92773 1735.5793 4.6622582e-33
-148.86679 -293.92538 1764.3746 0
-159.125 -299.64493 1797.4375 1.3422135e+11
-168.99454 -304.18008 1823.6003 inf
-178.81563 -308.0582 1846.0371 0
-191.08163 -315.45743 1889.4836 0
-206.39062 -327.26523 1959.1633 0
-221.65585 -338.37265 2024.4395 0
-234.5164 -345.16522 2063.5527 0
-245.05118 -348.13672 2079.5005 0
-254.10507 -348.8168 2081.5835 inf
-262.49335 -348.52383 2077.7886 inf
-270.86053 -348.1918 2073.7332 6.5174651e+35
-279.67578 -348.43164 2073.0005 0
-288.83829 -349.11639 2074.7207 0
-297.9953 -349.76797 2076.1147 0
-307.034 -350.22736 2076.4146 0
-316.06601 -350.62656 2076.3606 inf
-325.20312 -351.12109 2076.7476 inf
-334.19376 -351.46249 2076.1021 inf
-343.38321 -351.97461 2076.345 3.0408549e+35
-353.30157 -353.19727 2080.6731 1.2558161e+11
-362.91132 -354.10077 2083.022 7.4125157e-38
-371.07501 -353.58203 2076.8625 2.4234039e-28
-378.16757 -352.07071 2064.7515 1.0425737e+11
-385.8125 -351.08905 2055.7266 inf
-395.38516 -351.85272 2056.9207 0
-405.88712 -353.44101 2062.843 0
-415.79022 -354.45547 2065.3059 0
-425.32928 -355.1004 2065.5239 0
-434.94141 -355.79062 2065.8621 0
-444.75861 -356.61835 2066.8879 0
-454.6539 -357.48203 2068.0476 inf
-463.58319 -357.58633 2064.6895 inf
-471.75977 -357.07697 2057.7148 inf
-480.91913 -357.28946 2054.8511 0
-490.95859 -358.18243 2055.7214 0
-500.38361 -358.63321 2053.873 0
-508.62384 -358.21915 2047.0222 0
-515.9137 -357.14218 2036.3391 inf
-522.10742 -355.3703 2021.559 inf
-526.66052 -352.57733 2000.8074 inf
-531.18439 -349.82111 1980.1692 inf
-538.83478 -349.14569 1971.325 1.4219402e+16
-550.0332 -350.76328 1975.4879 1.9203528e-23
-562.86487 -353.36444 1985.1852 7.9911427e-38
-575.86877 -355.99414 1994.9504 2048062.2
-587.45081 -357.69806 1999.3453 inf
-597.05859 -358.17072 1996.5414 0
-607.61096 -359.16327 1996.3523 0
-620.24646 -361.36017 2002.7777 0
-631.52966 -362.74805 2004.6324 0
-640.67737 -362.86523 1999.2551 0
-650.38123 -363.2746 1995.2906 0
-660.90234 -364.13556 1993.696 inf
-670.96796 -364.71835 1990.5105 inf
-681.00232 -365.25861 1986.9395 inf
-690.64844 -365.60236 1982.1031 0
-698.9469 -365.2207 1973.2496 0
-708.86407 -365.63046 1968.6207 0
-723.37305 -368.38672 1976.3914 0
-739.12775 -371.76874 1987.2145 inf
-750.88086 -373.08905 1986.8473 inf
-759.40039 -372.74139 1977.4301 inf
-770.27814 -373.50937 1973.7367 2.5212148e+35
-785.75 -376.47382 1981.4844 2390138.5
-802.49841 -380.00116 1991.9691 2.0785657e+30
-815.74414 -382.36523 1997.1887 0
-820.92737 -383.13202 1998.111 1.4212891e+16
725.48669 -347.05704 1760.8383 inf
720.57227 -346.20001 1759.2312 0
709.09021 -344.18439 1755.2917 0
697.02112 -342.36133 1753.1223 0
686.34729 -341.15665 1754.043 0
675.20197 -339.6582 1753.3079 0
663.32111 -337.76367 1750.3113 0
651.62579 -335.92969 1747.3746 inf
640.79883 -334.50861 1746.4398 inf
631.43164 -333.81992 1749.196 0
622.26404 -333.2254 1752.1683 0
612.98438 -332.57343 1754.6843 0
604.40784 -332.26993 1759.0172 0
597.38245 -332.82657 1767.9141 0
591.70624 -334.13321 1780.777 inf
581.29608 -332.68124 1778.666 inf
564.63245 -327.62695 1756.9441 inf
550.9801 -324.31485 1744.407 inf
542.66876 -324.03946 1748.071 8.5838792e+20
532.42853 -322.52969 1744.7878 1.419668e-18
520.39764 -319.94492 1735.5535 3.5036939e-33
512.74573 -320.03281 1740.9489 inf
507.69571 -321.69101 1754.8235 inf
499.44025 -321.31876 1757.3879 0
488.54922 -319.24844 1750.5996 0
478.74063 -317.84531 1747.4496 0
470.55508 -317.49454 1749.8503 0
462.22617 -317.06055 1751.3969 0
453.17889 -316.13046 1750.0066 0
443.22736 -314.48477 1744.6575 inf
432.49689 -312.2207 1735.8187 inf
423.99921 -311.56992 1735.9789 0
418.73517 -313.25977 1749.2836 0
412.59024 -314.24725 1758.6605 0
404.25156 -313.58829 1758.848 0
396.55548 -313.44922 1761.9293 0
389.26678 -313.61212 1766.4512 inf
380.38046 -312.48828 1763.3899 inf
371.23087 -311.17499 1759.0336 inf
363.47891 -311.01642 1761.0699 inf
355.87421 -310.93243 1763.4778 3.5381136e+25
347.73633 -310.35703 1763.2008 7.4101885e-38
340.06601 -310.18515 1765.2551 0
332.51132 -310.10977 1767.5742 1.2121861e+11
323.97696 -309.11603 1764.3105 inf
315.30508 -307.97305 1760.2211 0
307.38788 -307.47226 1760.0383 0
298.63126 -306.00861 1754.2839 0
288.95859 -303.59686 1742.8523 0
280.90039 -302.86563 1741.0222 0
274.5047 -303.86523 1749.1672 0
268.02188 -304.8121 1756.8535 inf
260.36368 -304.39728 1756.5414 inf
251.04922 -301.90585 1744.3723 0
242.42538 -300.26993 1737.2683 0
238.31836 -304.48672 1763.9622 0
239.44258 -315.84882 1832.1609 0
242.38242 -330.19766 1917.8457 0
242.18477 -340.88788 1982.1614 inf
237.02617 -345.14569 2008.9039 inf
229.18399 -345.83047 2014.7742 inf
221.08008 -346.2215 2018.8782 4.3212213e+30
213.04414 -346.69611 2023.3953 48.486214
204.59219 -346.47812 2023.7532 0
195.85312 -345.78241 2021.2395 0
187.17265 -345.15469 2019.0977 2.3361999e-23
178.65274 -344.79257 2018.4449 inf
170.37617 -344.88907 2020.3613 0
162.21835 -345.19687 2023.4226 0
153.95703 -345.29767 2025.2292 0
145.60507 -345.2168 2025.9407 0
137.21407 -345.0289 2025.9934 0
128.88828 -345.05118 2027.223 0
120.64961 -345.29962 2029.6243 inf
112.22929 -344.91837 2028.1644 inf
103.69336 -344.19336 2024.6559 5.2858409e-18
95.390236 -344.27109 2025.8317 0
87.138283 -344.36249 2026.9301 0
78.421486 -342.1539 2014.3176 0
69.052345 -336.18555 1979.3906 0
59.437889 -327.73477 1929.7281 inf
50.21875 -319.61133 1882.1125 inf
41.61797 -313.1203 1844.25 inf
33.561718 -309.00311 1820.2839 inf
25.908594 -306.60898 1806.3586 3.7775321e+25
18.366796 -302.77032 1783.7695 4.6622582e-33
10.864453 -298.10663 1756.0172 0
3.5687499 -296.17343 1744.3477 1.3422135e+11
-3.5429688 -295.78946 1742.1946 inf
-10.623828 -294.71173 1736.1074 0
-17.746876 -294.19611 1733.0828 0
-24.821484 -294.21014 1732.8528 0
-31.718359 -292.91913 1724.6754 0
-38.54961 -291.11484 1713.4222 0
-45.594532 -290.98868 1712.2375 0
-52.884766 -292.46249 1720.6562 inf
-60.146484 -293.67889 1727.4968 inf
-67.13047 -293.47736 1725.8066 6.5174651e+35
-73.746094 -291.8082 1715.4789 0
-80.458595 -290.45663 1707.0515 0
-87.979691 -291.87891 1714.875 0
-95.766014 -294.29727 1728.4661 0
-102.74922 -294.22305 1727.2332 inf
-109.15157 -292.38983 1715.6 inf
-115.66328 -290.98047 1706.5273 inf
-122.87187 -291.31171 1707.5808 3.0408549e+35
-131.3414 -294.43399 1724.8043 1.2558161e+11
-140.90274 -299.66486 1754.3059 7.4125157e-38
-151.29257 -306.05939 1790.6605 2.4234039e-28
-161.89648 -312.36368 1826.5774 1.0425737e+11
-171.11172 -315.63712 1844.8406 inf
-179.57071 -317.02814 1852.0215 0
-190.9207 -322.94611 1885.4899 0
-205.85117 -334.46133 1951.514 0
-220.78125 -345.38828 2013.902 0
-233.34766 -351.94806 2050.5767 0
-243.75626 -354.84454 2065.686 0
-252.79765 -355.58319 2068.0063 inf
-261.10077 -355.24921 2063.9407 inf
-269.20898 -354.64648 2058.2793 inf
-277.79413 -354.65314 2056.1597 0
-287.07928 -355.53946 2059.0891 0
-296.51447 -356.59805 2062.8706 0
-305.45428 -357.03555 2062.9426 0
-314.0285 -356.98712 2060.2024 inf
-322.68555 -357.01056 2057.8469 inf
-331.34219 -357.06366 2055.4836 inf
-340.31329 -357.44025 2054.8218 inf
-350.01251 -358.54141 2058.3081 1.4219402e+16
-359.67462 -359.57501 2061.3315 1.9203528e-23
-368.46835 -359.72501 2059.0696 7.9911427e-38
-376.3461 -359.00937 2051.6653 2048062.2
-384.26212 -358.32657 2044.4274 inf
-393.68008 -358.99884 2044.984 0
-404.08203 -360.55704 2050.5481 0
-413.65039 -361.34726 2051.6238 0
-422.53671 -361.48553 2048.886 0
-431.99805 -362.09335 2048.6694 0
-442.08554 -363.21759 2051.2397 0
-452.01288 -364.18475 2052.8274 inf
-460.85507 -364.26447 2049.3137 inf
-468.95312 -363.73087 2042.2585 inf
-477.9953 -363.91211 2039.1426 0
-487.79727 -364.68906 2039.2761 0
-496.74335 -364.82343 2035.7094 0
-504.5043 -364.0871 2027.1687 0
-511.54022 -362.85742 2015.7738 inf
-517.96759 -361.25351 2002.1887 inf
-523.48865 -359.09805 1985.3984 inf
-529.24377 -357.13867 1969.611 2.5212148e+35
-537.69104 -356.98242 1963.8629 2390138.5
-548.8172 -358.58984 1967.9011 2.0785657e+30
-560.70038 -360.65976 1974.3391 0
-572.64532 -362.72031 1980.4766 1.4212891e+16
-583.94647 -364.34259 1983.9886 inf
-594.22815 -365.29062 1983.5746 0
-605.62073 -366.8504 1986.3289 0
-618.42773 -369.21405 1993.4473 0
-629.35236 -370.42499 1994.2449 0
-638.09607 -370.3172 1987.6887 0
-647.74884 -370.72031 1983.655 0
-658.44336 -371.72736 1982.7122 inf
-668.21014 -372.19257 1978.7692 inf
-677.60468 -372.41522 1973.4133 inf
-687.11017 -372.70468 1968.264 0
-695.57617 -372.43945 1960.0378 0
-704.91443 -372.5961 1953.9723 0
-718.43127 -374.9043 1959.1426 0
-733.82581 -378.18204 1969.1296 inf
-745.97186 -379.7785 1969.9558 inf
-755.41681 -379.95001 1963.1012 inf
-766.28241 -380.77344 1959.598 2.2100858e+35
-779.88281 -382.89923 1962.791 1.1549727e-13
-794.58673 -385.534 1968.3274 1.7877791e+35
-806.62384 -387.42267 1970.7629 5.2355233e-33
-811.34924 -388.01797 1970.6562 7.6715471e+15
726.22656 -355.77814 1758.8757 inf
721.409 -354.95743 1757.5808 0
710.8949 -353.39493 1756.1969 0
700.12463 -352.19141 1757.3977 0
689.66876 -351.07928 1759.0012 0
678.23987 -349.42813 1757.7117 0
666.34259 -347.51718 1754.8367 0
654.71057 -345.70001 1752.234 inf
643.38947 -343.98907 1750.0883 inf
633.39532 -342.95078 1751.2922 0
625.11914 -342.841 1757.0098 0
617.68201 -343.21289 1764.9622 0
609.87854 -343.37109 1771.7117 0
601.69257 -343.29922 1777.3317 0
593.3504 -343.09686 1782.3203 inf
581.28595 -340.67694 1775.3875 inf
565.48749 -336.07617 1756.5242 inf
552.51953 -333.10391 1746.1121 inf
543.15466 -332.14688 1746.4301 3.5381136e+25
533.04456 -330.68866 1743.8411 7.4101885e-38
522.5332 -329.00977 1739.7465 0
514.33008 -328.72501 1743.2035 1.2121861e+11
507.44962 -329.21835 1750.9043 inf
498.69492 -328.51172 1751.8226 0
487.85431 -326.45157 1745.1536 0
477.83749 -324.91718 1741.2028 0
470.3996 -325.11798 1746.4617 0
464.55078 -326.42929 1757.5535 0
458.06055 -327.28827 1766.179 0
449.12579 -326.35663 1765.1621 inf
438.16095 -323.88712 1755.8352 inf
428.40195 -322.27655 1751.1949 0
421.46875 -322.76993 1757.8718 0
414.11679 -322.90704 1762.3278 0
404.29492 -321.10468 1756.0579 0
394.409 -319.21875 1749.3496 0
385.72736 -318.24921 1747.5105 inf
377.1297 -317.32266 1745.6008 inf
368.94296 -316.73749 1745.5007 inf
362.20743 -317.39062 1752.2809 4.3212213e+30
355.69687 -318.24103 1760.0012 48.486214
347.90039 -317.94843 1761.2965 0
339.70587 -317.28906 1760.6218 0
332.38321 -317.44025 1764.3816 2.3361999e-23
325.48322 -318.00861 1770.2172 inf
318.13126 -318.1543 1773.5403 0
309.90585 -317.37421 1771.7473 0
300.44101 -315.22968 1762.3024 0
290.89374 -312.97305 1752.0496 0
283.01288 -312.4664 1751.5355 0
276.14453 -313.00275 1756.9359 0
269.13242 -313.38632 1761.5172 inf
261.10742 -312.52499 1758.9238 inf
251.07149 -309.14413 1741.802 5.2858409e-18
241.84531 -306.82852 1730.5797 0
237.83554 -311.30469 1757.9528 0
238.89844 -322.77969 1825.2454 0
241.27499 -336.63437 1906.1804 0
240.76758 -347.09259 1967.7461 inf
235.66837 -351.4707 1994.5797 inf
227.94804 -352.28476 2001.0547 inf
219.91289 -352.70233 2005.2981 inf
211.86563 -353.08163 2009.2859 3.7775321e+25
203.49179 -352.92853 2010.0781 4.6622582e-33
194.93282 -352.46173 2008.973 0
186.29727 -351.81134 2006.7961 1.3422135e+11
177.68437 -351.17694 2004.6406 inf
169.36914 -351.11212 2005.6168 0
161.28516 -351.48712 2009.0098 0
153.15742 -351.79453 2011.9792 0
144.91093 -351.86368 2013.5726 0
136.52617 -351.58554 2013.1191 0
128.19804 -351.51407 2013.7562 0
120.11367 -352.13126 2018.2399 inf
111.93594 -352.3703 2020.457 inf
103.4875 -351.76913 2017.8093 6.5174651e+35
95.135544 -351.58124 2017.4886 0
86.923439 -351.79803 2019.3945 0
78.38945 -350.34415 2011.5808 0
69.247658 -345.39218 1983.4847 0
59.748047 -337.36758 1937.6016 inf
50.446877 -328.58789 1887.3519 inf
41.714844 -321.30118 1845.5785 inf
33.623829 -317.07733 1821.3649 3.0408549e+35
25.967968 -314.65079 1807.5641 1.2558161e+11
18.402735 -311.03085 1786.7715 7.4125157e-38
10.900782 -307.80508 1768.0422 2.4234039e-28
3.60625 -307.15509 1764.2024 1.0425737e+11
-3.5296874 -305.99414 1757.5485 inf
-10.604688 -302.87579 1739.6589 0
-17.683985 -300.8129 1727.8715 0
-24.822657 -301.04218 1729.0758 0
-32.017578 -302.11603 1734.6992 0
-39.196484 -302.82071 1738.0652 0
-46.309376 -302.84882 1737.916 0
-53.390625 -302.57733 1736.3754 inf
-60.589455 -302.85196 1737.7566 inf
-67.808983 -303.3703 1740.1055 inf
-74.615623 -302.31485 1733.2477 0
-81.40078 -300.96564 1724.7379 0
-88.915627 -302.19962 1731.2 0
-96.621094 -304.19806 1742.0613 0
-103.66836 -304.06992 1740.4554 inf
-110.06602 -302.06836 1728.0422 inf
-116.28398 -299.71796 1713.8239 inf
-123.39922 -299.61914 1712.5078 inf
-132.29219 -303.63046 1734.5808 1.4219402e+16
-142.41914 -310.09686 1770.6218 1.9203528e-23
-152.96329 -316.83319 1808.2207 7.9911427e-38
-163.04648 -322.13437 1837.6243 2048062.2
-171.38594 -323.75586 1845.7719 inf
-179.29453 -324.17578 1846.7336 0
-190.53946 -330.09882 1879.0817 0
-205.3918 -341.80038 1944.491 0
-220.03633 -352.5578 2004.4238 0
-232.12617 -358.56992 2037.1351 0
-242.16133 -361.01483 2049.3042 0
-251.11015 -361.70663 2051.2415 inf
-259.43048 -361.47501 2047.7855 inf
-267.60898 -361.03241 2043.0847 inf
-276.1922 -361.11914 2041.3855 0
-285.24023 -361.79141 2043.0105 0
-294.49023 -362.69571 2045.8223 0
-303.46759 -363.26288 2046.5339 0
-311.86603 -363.10898 2043.1257 inf
-320.02814 -362.65546 2038.0234 inf
-328.409 -362.46796 2034.2988 inf
-337.28595 -362.82578 2033.5312 2.5212148e+35
-346.60938 -363.63867 2035.2805 2390138.5
-356.01016 -364.49493 2037.1824 2.0785657e+30
-365.34415 -365.24689 2038.3301 0
-374.38751 -365.71445 2037.6976 1.4212891e+16
-383.09219 -365.83673 2035.0437 inf
-392.30704 -366.3797 2034.7789 0
-402.20508 -367.5293 2037.8766 0
-411.56915 -368.1918 2038.123 0
-420.2789 -368.23322 2034.7864 0
-429.51483 -368.70157 2033.72 0
-439.42227 -369.73358 2035.6746 0
-449.17538 -370.61407 2036.6914 inf
-457.966 -370.68829 2033.1656 inf
-466.35001 -370.40936 2027.571 inf
-475.8465 -371.00351 2026.6335 0
-485.54767 -371.78085 2026.6055 0
-493.79922 -371.43475 2020.361 0
-501.19492 -370.43866 2010.4938 0
-508.3707 -369.31952 1999.8864 inf
-515.0293 -367.87344 1987.4379 inf
-520.90741 -365.93008 1972.2207 inf
-526.8551 -364.07031 1957.3969 2.2100858e+35
-534.91211 -363.66876 1950.4222 1.1549727e-13
-545.40625 -364.93475 1952.345 1.7877791e+35
-556.75977 -366.76447 1957.0992 5.2355233e-33
-568.62891 -368.87265 1963.1215 7.6715471e+15
-581.07263 -371.29648 1970.616 inf
-593.18787 -373.45038 1976.5023 0
-605.06366 -375.35977 1981.0461 0
-616.6488 -377.02304 1984.2692 0
-626.32422 -377.50861 1981.0902 0
-634.44415 -377.05389 1972.6879 0
-644.00781 -377.44806 1968.5231 0
-655.50159 -378.97812 1970.1215 inf
-666.22577 -380.04767 1969.1797 inf
-675.40039 -380.18204 1963.3281 inf
-684.1629 -380.06134 1956.1062 0
-692.75702 -379.86017 1948.3109 0
-701.98749 -380.00351 1942.1195 0
-713.73749 -381.46991 1942.6094 0
-727.40662 -383.93164 1948.0211 inf
-740.29883 -385.96524 1950.9128 inf
-752.26093 -387.47266 1950.8031 inf
-763.92224 -388.77814 1949.5797 inf
-775.23279 -389.84805 1947.1282 48.470711
-787.38672 -391.30038 1946.3922 1.0029804e-13
-798.70819 -392.9043 1947.2051 9.4136201e-09
-803.52814 -393.57343 1947.4125 5.8800973e-09
728.09924 -365.09296 1759.6071 inf
723.41248 -364.32928 1758.7043 0
713.79297 -363.19882 1759.6946 0
704.02032 -362.47891 1763.5215 0
693.48669 -361.31094 1765.0852 0
681.88947 -359.56055 1763.6028 0
670.36682 -357.82578 1761.9199 0
658.90662 -356.08087 1759.9594 inf
646.92615 -353.99805 1756.1848 inf
635.68591 -352.2746 1754.1211 0
627.04333 -351.97266 1759.0293 0
620.61487 -352.92422 1770.041 0
614.15857 -353.88165 1780.8723 0
605.67657 -353.66837 1785.677 0
594.22577 -351.64804 1781.3773 inf
580.59998 -348.29376 1770.0453 inf
567.78906 -345.44025 1760.7203 inf
556.79181 -343.60312 1756.4387 4.3212213e+30
545.97577 -341.76837 1752.2386 48.486214
535.82928 -340.33829 1749.9398 0
526.64178 -339.46249 1750.3879 0
516.6582 -337.96835 1747.7805 2.3361999e-23
506.1203 -336.0672 1743.0215 inf
495.90509 -334.36874 1738.934 0
485.97812 -332.86328 1735.4867 0
477.84726 -332.60272 1738.3832 0
472.73828 -334.46054 1752.3597 0
468.57266 -336.98358 1769.9153 0
461.97031 -337.75 1778.2903 0
451.71249 -335.82501 1772.3601 inf
438.91055 -331.92734 1755.8132 inf
427.10626 -328.73242 1742.8503 5.2858409e-18
419.21445 -328.52344 1745.554 0
412.66718 -329.33282 1753.3938 0
404.21094 -328.63086 1752.9238 0
394.49179 -326.87305 1746.782 0
385.12616 -325.32657 1741.8903 inf
376.67813 -324.49844 1740.791 inf
368.93085 -324.24921 1742.6667 inf
362.07578 -324.79608 1748.8333 inf
355.91641 -325.98944 1758.4031 3.7775321e+25
348.79883 -326.31445 1763.1008 4.6622582e-33
340.38086 -325.42969 1761.2278 0
332.42578 -324.98087 1761.7777 1.3422135e+11
325.62616 -325.6535 1768.3594 inf
318.78555 -326.29297 1774.5867 0
310.49335 -325.41211 1772.3933 0
300.74609 -322.9418 1761.4528 0
291.48398 -320.95978 1753.0715 0
284.02188 -320.92343 1755.2015 0
277.14142 -321.49921 1760.5969 0
269.52304 -321.19452 1761.2102 inf
260.92578 -319.65936 1754.9875 inf
251.6246 -317.22772 1743.4187 6.5174651e+35
243.85507 -316.80508 1742.775 0
240.1582 -321.81015 1772.4957 0
240.17422 -332.13632 1832.0309 0
241.19141 -344.41171 1902.4492 0
239.80038 -353.81915 1956.864 inf
234.58281 -358.0957 1982.5957 inf
227.16875 -359.35001 1991.3782 inf
219.22226 -359.85001 1995.9578 3.0408549e+35
210.9875 -359.88321 1997.9235 1.2558161e+11
202.54024 -359.56836 1997.8411 7.4125157e-38
194.07773 -359.20587 1997.405 2.4234039e-28
185.4668 -358.49765 1994.9954 1.0425737e+11
176.76367 -357.58087 1991.3304 inf
168.44376 -357.43515 1991.825 0
160.51797 -358.08594 1996.6941 0
152.5582 -358.67969 2001.2797 0
144.3625 -358.77069 2003.0316 0
135.9707 -358.39883 2002.0641 0
127.69297 -358.39374 2003.0632 0
119.71211 -359.22968 2008.7504 inf
111.62187 -359.64923 2012.027 inf
103.20508 -359.04453 2009.4387 inf
94.838669 -358.69766 2008.2188 0
86.610153 -358.74921 2009.193 0
78.125389 -357.43866 2002.4301 0
69.130081 -353.05194 1978.2379 0
59.70742 -345.01288 1933.4723 inf
50.35078 -335.59531 1880.9105 inf
41.680859 -328.92227 1843.4984 inf
33.759377 -326.15118 1827.8793 inf
26.142578 -324.26758 1817.3411 1.4219402e+16
18.536718 -321.10117 1799.5618 1.9203528e-23
11.013672 -318.56094 1785.3789 7.9911427e-38
3.6609375 -317.7746 1781.1871 2048062.2
-3.5671875 -316.216 1772.4254 inf
-10.683985 -312.6875 1752.3688 0
-17.734375 -309.51016 1734.3567 0
-24.914845 -309.27148 1732.8539 0
-32.346092 -311.9035 1747.359 0
-39.779297 -314.3418 1760.7629 0
-46.831642 -313.74454 1757.1809 0
-53.556641 -311.01093 1741.6293 inf
-60.554688 -309.81757 1734.6516 inf
-67.975784 -311.04572 1741.068 inf
-75.247269 -311.78555 1744.4281 0
-82.490623 -312.03241 1744.8824 0
-90.090233 -313.46094 1752.2067 0
-97.645309 -314.70078 1758.6008 0
-104.84843 -314.6918 1757.7266 inf
-111.56289 -313.36835 1749.2395 inf
-117.89414 -311.10391 1735.4668 inf
-124.99648 -310.75507 1732.5059 2.5212148e+35
-133.71953 -314.2504 1751.225 2390138.5
-143.39062 -319.64493 1780.7246 2.0785657e+30
-153.17538 -324.79141 1808.7832 0
-162.42188 -328.47812 1828.3848 1.4212891e+16
-170.70625 -330.02228 1835.5332 inf
-179.6414 -332.42499 1847.1316 0
-191.7207 -340.0625 1888.0964 0
-206.28828 -351.51172 1950.6215 0
-219.92696 -360.7746 2000.9563 0
-230.92188 -365.15585 2023.8938 0
-240.28555 -366.64764 2030.4801 0
-249.03946 -367.14569 2031.2711 inf
-257.35742 -367.00546 2028.3617 inf
-265.7496 -366.93085 2025.7695 inf
-274.55899 -367.41367 2026.252 0
-283.39297 -367.91953 2026.816 0
-292.36328 -368.55389 2027.9648 0
-301.53281 -369.42657 2030.2946 0
-310.11288 -369.57501 2028.5621 inf
-318.10156 -368.9957 2022.7386 inf
-326.34375 -368.71249 2018.4402 inf
-335.04688 -368.94962 2016.9746 2.2100858e+35
-343.93866 -369.3746 2016.516 1.1549727e-13
-353.034 -369.98828 2016.9808 1.7877791e+35
-362.52695 -370.97501 2019.375 5.2355233e-33
-372.21719 -372.13086 2022.5836 7.6715471e+15
-381.5625 -372.92303 2023.6726 inf
-390.57852 -373.35117 2022.7047 0
-399.7832 -373.91757 2022.4504 0
-409.0918 -374.57227 2022.5664 0
-418.27423 -375.091 2021.8031 0
-427.50821 -375.625 2021.0273 0
-436.78711 -376.17499 2020.2621 0
-445.94452 -376.60312 2018.7516 inf
-454.60858 -376.61563 2014.902 inf
-463.38007 -376.69061 2011.2551 inf
-473.46014 -377.80585 2013.0687 0
-483.44766 -378.86523 2014.468 0
-491.65665 -378.51913 2008.2172 0
-498.97305 -377.47305 1998.1855 0
-506.12384 -376.32852 1987.6403 inf
-512.77539 -374.86523 1975.321 inf
-518.54181 -372.83047 1959.8672 inf
-524.00427 -370.62579 1943.4629 inf
-531.33948 -369.75586 1934.0383 48.470711
-541.46759 -370.84259 1934.807 1.0029804e-13
-552.69025 -372.66522 1939.3239 9.4136201e-09
-564.54999 -374.83749 1945.4961 5.8800973e-09
-578.08789 -378.04218 1956.8079 inf
-591.8363 -381.32501 1968.3464 0
-603.50354 -383.18204 1972.4379 0
-613.20703 -383.72421 1969.6566 0
-621.80389 -383.57733 1963.0852 0
-630.06409 -383.25079 1955.3035 0
-639.89417 -383.86212 1952.1852 0
-652.13672 -385.88126 1956.1824 inf
-664.19531 -387.76718 1959.348 inf
-673.84021 -388.21405 1955.0289 inf
-682.07812 -387.82578 1946.3688 0
-690.45471 -387.51483 1937.9988 0
-699.87384 -387.79532 1932.4133 0
-710.97736 -388.99139 1931.2555 0
-723.11487 -390.70352 1932.6234 inf
-735.60663 -392.55313 1934.4895 inf
-749.03516 -394.86368 1938.3024 inf
-762.34064 -397.09375 1941.4148 inf
-773.89026 -398.37775 1939.6394 1.3649906e+16
-784.8996 -399.32227 1936.0938 5.8253452e-33
-795.05548 -400.37579 1934.0657 0
-799.50702 -400.8703 1933.3899 1.4414059e-13
730.50232 -374.71796 1761.5641 inf
726.07971 -374.08047 1761.3723 0
717.00549 -373.21329 1763.8333 0
707.36877 -372.54922 1768.111 0
696.48126 -371.1879 1768.9242 0
684.62695 -369.28555 1766.9597 0
672.87854 -367.39532 1764.8438 0
661.2785 -365.54181 1762.6777 inf
649.40588 -363.49335 1759.334 inf
637.87695 -361.60001 1756.5726 5.2858409e-18
628.42346 -360.85587 1759.3196 0
621.15002 -361.33478 1768.014 0
614.42419 -362.125 1778.1692 0
605.92499 -361.86993 1782.934 0
593.25354 -359.08478 1774.8992 inf
579.36292 -355.54962 1762.9535 inf
569.77771 -354.6496 1763.8477 inf
562.01056 -354.81561 1769.7786 inf
552.23944 -353.68515 1769.1895 3.7775321e+25
542.84882 -352.77618 1769.7855 4.6622582e-33
533.46991 -351.77618 1769.889 0
521.17773 -348.78009 1759.7637 1.3422135e+11
507.99335 -345.14688 1746.1953 inf
496.25546 -342.39764 1736.9371 0
486.30469 -340.82928 1733.5543 0
479.72421 -341.6535 1742.2484 0
476.10156 -344.60077 1761.8203 0
471.24298 -346.63828 1776.8157 0
462.09766 -345.52304 1775.5156 0
449.8703 -342.09845 1761.9847 inf
436.73163 -337.9043 1744.043 inf
424.99179 -334.70819 1731.1433 6.5174651e+35
416.93008 -334.32227 1732.9973 0
411.30585 -335.86444 1744.8035 0
405.48712 -337.32501 1755.8402 0
397.9129 -337.33945 1759.1699 0
388.43048 -335.68008 1753.8933 inf
379.0043 -334.01758 1748.6758 inf
370.99063 -333.57422 1749.6433 inf
364.06094 -334.10898 1755.616 3.0408549e+35
357.61017 -335.07928 1763.9609 1.2558161e+11
350.64102 -335.57578 1769.6898 7.4125157e-38
342.57422 -335.06094 1769.804 2.4234039e-28
334.33008 -334.37695 1768.991 1.0425737e+11
326.74649 -334.31171 1771.5586 inf
319.24414 -334.29688 1774.323 0
310.63202 -333.07306 1770.4329 0
300.784 -330.44922 1758.9504 0
291.51562 -328.40509 1750.557 0
284.18985 -328.50821 1753.5778 0
277.57147 -329.39764 1760.6742 0
269.91171 -329.03632 1760.973 inf
261.31757 -327.53165 1755.0309 inf
253.23711 -326.68594 1752.4668 inf
246.97617 -328.24374 1762.8278 0
243.0164 -333.01483 1790.7578 0
241.37149 -341.33478 1838.0765 0
240.96407 -351.91641 1897.5867 0
238.89453 -360.5578 1946.443 inf
233.56055 -364.73163 1971.0309 inf
226.32071 -366.22266 1981.0375 inf
218.4836 -366.8418 1986.2156 inf
210.21758 -366.78555 1987.5898 1.4219402e+16
201.73906 -366.37656 1986.9675 1.9203528e-23
193.29453 -365.99139 1986.4504 7.9911427e-38
184.70547 -365.24374 1983.886 2048062.2
176 -364.23203 1979.7679 inf
167.7496 -364.17343 1980.7614 0
159.93672 -365.00742 1986.6285 0
151.95781 -365.46014 1990.4691 0
143.68672 -365.2793 1990.7571 0
135.34024 -364.93671 1989.9457 0
127.16289 -365.09454 1991.7914 0
119.20039 -365.86719 1997.0328 inf
111.09766 -366.16251 1999.5872 inf
102.76054 -365.74805 1998.1121 inf
94.500778 -365.65234 1998.3262 0
86.280472 -365.56561 1998.5618 0
77.801956 -364.16992 1991.5004 0
68.930466 -360.21094 1970.2203 0
59.578907 -352.07852 1925.9762 inf
50.168751 -341.97931 1870.8984 inf
41.575001 -335.93866 1837.9703 inf
33.831642 -334.60663 1830.8235 2.5212148e+35
26.273438 -333.64532 1825.6406 2390138.5
18.673828 -331.46991 1813.6726 2.0785657e+30
11.142969 -328.86368 1799.5062 0
3.710547 -326.60077 1787.3789 1.4212891e+16
-3.6125 -324.75586 1777.2551 inf
-10.799219 -322.29962 1763.4434 0
-17.908203 -319.67032 1748.6364 0
-25.126562 -319.20703 1745.9016 0
-32.548439 -321.23398 1757.0735 0
-39.954296 -323.0246 1766.8844 0
-47.012108 -322.17422 1761.7965 0
-53.757812 -319.43048 1746.0261 inf
-60.675392 -317.78827 1736.4554 inf
-67.972267 -318.30585 1738.9934 inf
-75.453903 -319.66055 1745.9583 0
-83.132034 -321.52228 1755.4515 0
-90.839844 -323.3418 1764.7468 0
-98.272263 -324.00546 1767.7094 0
-105.59414 -324.13712 1767.6082 inf
-112.80273 -324.00781 1765.8656 inf
-119.87891 -323.49609 1761.832 inf
-127.53281 -324.33905 1765.2211 2.2100858e+35
-135.99063 -327.07343 1779.1985 1.1549727e-13
-144.61288 -329.97577 1794.293 1.7877791e+35
-153.24141 -332.5668 1807.6062 5.2355233e-33
-161.93515 -335.09845 1820.2781 7.6715471e+15
-170.8582 -337.85663 1833.8184 inf
